ply
format ascii 1.0
element vertex 213
property float x
property float y
property float z
property uchar diffuse_red
property uchar diffuse_green
property uchar diffuse_blue
end_header
-0.0500985 0.180776 0.0284693 75 59 38
0.0202214 0.0542953 0.0253147 119 89 53
0.00479899 0.137695 0.0187711 72 49 17
-0.0140352 0.0707379 0.0251427 113 83 44
-0.0175478 0.0642838 0.0257675 121 91 51
0.0219422 0.108661 0.0178894 121 96 61
0.00235191 0.132835 0.0234717 125 101 70
0.000274567 0.147056 0.0231996 130 100 63
-0.0164735 0.153486 -0.000887693 137 107 70
-0.0158088 0.105062 0.0231615 100 72 38
-0.0283436 0.041195 0.055678 80 57 27
-8.95583e-05 0.0364474 0.0482501 102 79 52
-0.0004915 0.0447378 0.0475699 154 128 92
-0.0407694 0.0608395 0.0190817 132 102 60
-0.0404282 0.115548 0.0424635 97 80 49
-0.0449592 0.143138 0.0169002 132 108 69
-0.0145563 0.145477 0.0135586 139 112 72
0.0227103 0.0663776 0.0227483 158 127 85
-0.0135456 0.0477089 0.0259226 148 114 75
-0.0288847 0.0243558 0.0607737 131 111 80
-0.0164578 0.0485245 0.0311051 138 107 71
0.0218206 0.0741389 0.023215 113 86 54
0.0248475 0.045589 0.0245369 147 115 78
-0.034932 0.166 0.0200457 118 92 53
-0.0417262 0.132198 0.0188666 128 101 64
-0.0235782 0.132405 0.0159151 110 82 49
-0.0229253 0.0379161 0.0250313 124 93 55
-0.00932897 0.150595 0.0171051 145 114 71
-0.0284398 0.0456581 0.0429118 172 143 103
-0.0532081 0.140161 0.0444586 111 89 55
-0.0265853 0.14067 0.0146239 159 133 87
-0.0370727 0.155755 0.0246066 121 94 57
-0.0165607 0.147069 0.0245633 123 97 60
0.00601527 0.0368426 0.0436684 151 121 85
0.0224235 0.0383836 0.0130284 129 102 68
-0.0428182 0.147073 0.0423719 127 102 66
-0.0434891 0.0855447 0.0557546 113 92 60
0.0100055 0.0318059 0.0321938 135 106 69
-0.0256253 0.145291 0.014721 155 127 87
-0.0384186 0.0456812 0.0583984 137 116 86
0.0124986 0.0190112 0.0190275 125 101 69
0.0128554 0.0451292 0.0319616 162 132 93
0.00344498 0.143961 0.0201638 161 132 88
0.0263026 0.0230453 0.0323459 124 98 64
-0.0257806 0.161585 0.037233 133 108 65
0.0075752 0.0382319 0.0326555 127 99 67
-0.0190893 0.0429668 0.0575729 113 89 55
-0.0346944 0.171636 0.013945 105 86 63
0.0226351 0.101146 0.0208325 158 126 86
-0.0171974 0.0191487 0.0221311 128 102 65
-0.0199585 0.153998 0.0253915 126 100 60
-0.0426443 0.033704 0.0606749 105 84 52
-0.00440119 0.139974 0.0245665 145 119 79
-0.0164171 0.129788 0.0251712 138 110 71
-0.0159784 0.0650438 0.0163235 147 114 68
-0.0179909 0.0596893 0.0259841 140 111 65
-0.00172879 0.129215 0.024078 138 109 69
-0.0318583 0.153993 0.0122798 129 101 62
-0.0559883 0.0309234 0.0494043 109 82 48
-0.037647 0.155102 0.00966837 125 95 58
0.0142198 0.032839 0.0334378 137 107 70
-0.00814974 0.146445 0.00915956 137 112 71
0.0206769 0.0502539 0.0271057 136 107 69
-0.0352973 0.16641 0.0332146 106 80 44
-0.0331324 0.132502 0.0212704 126 99 62
-0.0448807 0.0984883 0.0558568 112 93 57
-0.0435698 0.0414919 0.0605564 136 114 78
0.000340017 0.0470799 0.0312234 155 131 101
-0.0443749 0.126851 0.0597921 149 129 86
-0.0224891 0.0215803 0.0396904 132 107 70
0.0263882 0.0284849 0.0153771 148 118 81
-0.038894 0.128775 0.0253151 116 89 49
0.000705166 0.12576 0.02475 142 113 73
-0.0166561 0.11619 0.0266289 147 123 85
-0.00755008 0.0323693 0.0490216 137 110 71
-0.0563044 0.0209246 0.0420677 108 85 50
0.0186202 0.0392123 0.0324765 136 106 69
-0.0326675 0.0331632 0.0622279 118 99 60
0.0126621 0.0278377 0.0136911 119 92 59
-0.00638315 0.129349 0.0251146 139 111 69
0.00600762 0.0340915 0.0097563 128 100 67
-0.0203293 0.0309956 0.04805 135 110 74
-0.0140412 0.0134734 0.00652288 138 113 76
-0.0261861 0.0455678 0.0373347 130 100 57
-0.0221111 0.123603 0.0261206 149 123 82
-0.0165423 0.0894602 0.0233385 157 128 87
-0.032161 0.0352812 0.0474968 124 98 61
-0.0150109 0.0239272 0.0492724 131 106 71
0.0190503 0.0280168 0.0318441 136 108 66
-0.0376205 0.125038 0.0248126 135 107 64
0.0115508 0.119439 0.024578 108 84 55
-0.0105295 0.154719 0.0150822 102 75 39
-0.0123179 0.146709 0.0193558 128 101 59
0.00606992 0.142641 0.014615 122 98 59
0.0234276 0.104664 0.0178747 128 99 56
0.00150141 0.137611 0.0228796 62 43 18
0.0255938 0.0658142 0.0179468 91 69 40
-0.0297677 0.0241518 0.0605752 132 110 75
0.0241549 0.0684438 0.0198828 151 122 81
0.00478094 0.137576 0.0187922 65 43 13
-0.0411227 0.0808555 0.0197261 142 107 58
-0.0102163 0.10578 0.0239858 131 101 59
-0.0113022 0.169586 0.0179498 165 140 107
0.0204917 0.0543457 0.0254037 117 87 52
0.0289181 0.0226753 0.0152453 107 86 60
0.0257685 0.0228116 0.0327136 108 84 51
0.02616 0.0467743 0.0203347 158 128 89
0.000822238 0.044958 0.0473536 156 125 88
-0.0398359 0.115479 0.0423786 87 72 45
-0.0547197 0.0398407 0.0403527 132 107 66
-0.0207349 0.133873 0.0302236 107 81 47
0.0230788 0.0663742 0.0228851 162 130 92
0.0124702 0.0459728 0.0352627 125 95 56
-0.054625 0.117475 0.0205899 102 74 39
0.00594205 0.0369782 0.0436199 145 115 80
-0.0229814 0.142238 0.0135955 143 117 75
-0.0164559 0.0718217 0.0243362 160 128 82
-0.0109515 0.0612926 0.0230399 105 76 44
-0.0428944 0.0200852 0.0458932 138 114 77
-0.00312848 0.0145474 0.0140247 128 103 70
0.0270591 0.0420457 0.0269235 139 114 79
-0.0186762 0.150163 0.0069816 130 104 68
-0.00988457 0.0985767 0.0202548 137 104 60
-0.0401704 0.0516843 0.019681 136 105 63
-0.0558654 0.160373 0.0427713 132 108 66
-0.0416457 0.120395 0.040903 144 118 76
-0.0315583 0.146738 0.0215762 122 94 52
-0.0267146 0.154035 0.0138615 144 118 75
0.0177275 0.11955 0.0132097 116 90 61
0.00660485 0.137111 0.0109741 99 79 48
0.0266635 0.0405101 0.0311511 154 128 92
-0.019657 0.0461597 0.0565677 123 94 55
-0.0344131 0.120875 0.0300401 63 45 16
-0.0425219 0.123467 0.0593319 152 132 88
-0.0410039 0.164343 0.0412001 187 159 106
-0.0092685 0.167121 0.0149662 129 108 76
0.0269874 0.025067 0.0199797 146 120 83
0.0277145 0.0343102 0.0151528 149 123 87
0.0150297 0.12867 0.0148507 114 88 49
0.0282016 0.0290341 0.0151498 152 125 88
-0.00486387 0.0337072 0.054519 132 109 75
-0.0206588 0.145294 0.00345125 139 111 74
-0.0359371 0.147065 0.0440851 106 80 46
-0.0150308 0.152964 0.00157824 145 117 78
-0.0266455 0.134007 0.0193548 153 123 79
0.00629134 0.0455248 0.038213 144 118 77
0.000812519 0.149877 0.0203198 150 123 78
0.00749965 0.0211458 0.00288371 134 105 70
-0.0403064 0.140482 0.043323 107 83 50
-0.0408645 0.115975 0.0463347 101 81 50
-0.0544897 0.159786 0.0111039 162 138 93
0.0275517 0.0333561 0.0194952 144 117 80
0.0247721 0.0788172 0.0168086 146 121 81
-0.0426246 0.0334616 0.060595 105 83 53
0.0197239 0.0266571 0.0240703 104 77 40
-0.0104521 0.143729 0.0286107 150 122 79
-0.0699731 0.164817 0.00710563 155 132 94
0.0137967 0.0326832 0.0333313 138 107 70
-0.00730357 0.148258 0.0245302 152 124 81
-0.0212751 0.0904148 0.00968254 157 124 81
0.0272707 0.0388339 0.0213645 102 78 45
-0.0570295 0.157376 0.0457699 107 85 49
-0.0407489 0.175643 0.0288381 131 111 76
0.0293272 0.02205 0.0118248 69 49 28
-0.0518669 0.048726 0.0521767 112 84 48
0.0279636 0.0344597 0.00866978 140 113 80
-0.0403254 0.168967 0.0277243 129 105 66
-0.0405241 0.165742 0.0301348 114 91 52
-0.0167989 0.0656547 0.00710129 133 100 60
0.0282886 0.037929 0.0141305 116 93 61
0.0149684 0.0299741 0.0231631 121 94 59
-0.00108758 0.129302 0.0242656 138 108 67
-0.0133724 0.14072 0.0132558 148 121 79
-0.0397704 0.163422 0.0377375 124 100 61
0.0223701 0.0239932 0.0261334 119 94 61
-0.0321232 0.154335 0.0461716 93 72 42
0.0255912 0.0609675 0.017417 144 118 83
-0.0353798 0.132613 0.052144 114 90 53
0.026717 0.0405551 0.016397 125 99 66
-0.0429386 0.0579896 0.0222148 160 131 84
-0.00234564 0.040294 0.0277171 130 99 62
-0.00810092 0.126183 0.0341365 117 90 54
-0.0567273 0.158656 0.0320368 112 91 55
-0.0504782 0.128166 0.0220785 116 91 51
-0.0134518 0.0993563 0.0308467 158 127 83
-0.0309432 0.160912 0.00916967 143 119 78
0.0175627 0.0217523 0.00232903 143 112 70
-0.0542812 0.128096 0.0526072 111 90 52
0.00604936 0.142767 0.0146204 128 103 66
-0.010952 0.154768 0.0153249 90 63 30
0.0240668 0.108892 0.0176358 132 107 74
0.0289897 0.0226038 0.0146154 105 85 60
-0.0106692 0.14269 0.0243284 148 121 81
0.0274533 0.0419246 0.0266893 150 123 86
-0.0427859 0.120443 0.0410568 130 104 63
0.00594996 0.0369696 0.0436281 142 114 79
-0.0153969 0.151 0.0123664 139 111 68
-0.0404135 0.145165 0.0162669 143 115 77
0.0254359 0.032198 0.0325048 151 126 86
0.0280003 0.0342648 0.0149832 147 123 88
0.0265155 0.0250144 0.0202758 140 118 83
0.0228125 0.0876466 0.0189535 137 106 67
0.00718719 0.0404126 0.0372253 100 74 45
-0.0491828 0.134088 0.0387101 82 60 31
0.00856033 0.0459979 0.0378638 147 120 81
-0.0386329 0.173753 0.0269468 133 111 75
-0.0321492 0.141705 0.022953 146 119 80
-0.038002 0.169022 0.0274314 114 91 55
-0.0106256 0.146956 0.0191457 125 97 57
-0.0442591 0.120266 0.0451367 118 93 55
-0.0267559 0.0461839 0.0373765 151 121 78
0.0275785 0.0343898 0.00889753 140 116 81
-0.034755 0.171578 0.029893 132 106 63
