ply
format ascii 1.0
element vertex 629
property float x
property float y
property float z
property uchar diffuse_red
property uchar diffuse_green
property uchar diffuse_blue
end_header
-0.0166569 0.0214095 0.0310406 114 92 61
0.0298004 0.00479882 0.0032985 139 110 70
-0.0227721 0.154368 0.00608561 144 116 71
0.00544403 0.00448811 0.0196972 135 109 72
-0.00628804 0.122299 -0.00471019 150 123 79
0.0135489 0.104489 -0.0050012 124 97 60
-0.0310419 0.149643 0.0169301 142 120 73
0.0408872 0.0187884 0.00231484 145 111 70
0.0424825 0.0187562 0.00258997 137 104 64
0.00918306 0.146249 -0.0167281 166 136 85
-0.00245471 0.145943 -0.00912868 148 121 78
0.00307216 0.109675 -0.00458658 140 108 69
0.00802803 0.0764156 -0.00708866 139 109 67
0.00950184 0.0763993 -0.00730251 164 133 86
-0.01334 0.0128888 0.0323025 118 97 65
-0.0118349 0.0127965 0.0321378 128 107 71
-0.0264222 0.0518092 0.0261979 89 72 43
-0.0246868 0.0517996 0.0266604 144 129 92
-0.0266737 0.0602941 0.0257638 133 113 77
-0.0252296 0.0603147 0.0267595 110 94 65
-0.0327308 0.106647 0.0296289 125 105 69
-0.0313565 0.106649 0.0298933 132 112 73
-0.0192416 0.00810183 0.0316327 119 99 65
-0.0175971 0.00803408 0.0316994 128 109 74
-0.0313772 0.0601909 0.0216478 61 40 10
-0.0298793 0.0602257 0.0229566 115 96 58
-0.0215226 0.0209616 0.0315841 110 91 55
-0.0196705 0.0208245 0.0310413 136 115 80
0.0343656 0.112219 -0.137594 133 103 63
0.0310899 0.107538 -0.00620953 120 92 56
0.0336883 0.109326 -0.0526355 143 114 74
0.0155501 0.00356972 0.0467961 63 55 53
0.0168673 0.0028887 0.0429467 64 56 53
0.0500716 -0.0034499 0.0320527 50 39 34
0.0497959 -0.00557851 0.0216416 60 49 44
0.0493119 -7.53633e-06 0.0538825 48 36 32
0.00993731 0.0337535 -0.0137963 157 121 69
0.0117302 0.0340673 -0.00968183 132 110 83
0.00336513 0.130361 -0.0046378 137 109 68
0.000783353 0.0734448 -0.00714043 152 120 74
0.00259309 0.0734538 -0.00584528 163 136 91
-0.0223089 0.0367803 0.0184421 126 104 69
-0.0322436 0.0259726 0.0215688 128 105 72
0.0134204 0.0984144 -0.00440306 98 80 59
0.00703239 0.0453008 -0.00490719 145 113 64
0.0286905 0.100793 -0.00614484 81 54 21
0.00535173 0.0506896 -0.00458437 118 90 55
0.0069721 0.0506205 -0.00511124 154 123 76
0.000183293 0.0886015 -0.00760398 130 102 62
0.0418473 0.0939053 -0.00590775 123 96 62
-0.0332241 0.12086 0.0240389 111 92 62
-0.0317658 0.120866 0.02432 80 61 37
0.000592085 0.0681397 -0.00697212 141 112 72
-0.0274978 0.101179 0.031103 135 119 81
-0.0281743 0.0751602 0.0258102 124 109 81
-0.0268205 0.0751682 0.0268731 126 109 68
0.0535907 -0.0163021 -0.20738 141 113 74
0.0371949 0.0533316 -0.0044392 115 83 54
-0.0569428 0.00644105 0.0657909 55 46 39
-0.047207 0.0048274 0.14276 23 18 16
-0.0459353 0.00450376 0.141497 35 29 28
0.0396212 0.0260835 -0.00218088 186 152 112
-0.0210019 0.140078 0.0236207 188 166 115
-0.00162767 -0.00911581 -0.102186 127 105 72
0.00423317 0.0575704 -0.00497131 151 119 77
0.0057183 0.0575686 -0.00454234 167 142 101
-0.0233422 0.0136829 0.0315636 115 95 66
-0.0219133 0.0136555 0.0314913 98 79 52
0.00790437 0.0119939 0.0195915 125 99 63
0.00407396 0.096099 -0.00280431 147 121 82
-0.0322676 0.144258 0.0209205 145 124 80
0.0460816 0.0131555 0.00214822 149 115 72
0.0475439 0.0131269 0.00244253 57 39 26
0.0358161 0.060819 -0.00553724 126 98 60
0.0373649 0.0607949 -0.00553737 155 119 71
-0.0125573 0.0227745 0.0256434 97 69 39
-0.0110915 0.0226875 0.0254075 100 72 43
0.0398384 0.0299672 -0.00424804 133 100 61
0.0413565 0.0299464 -0.0042479 149 115 67
0.0108059 0.108527 0.0377464 140 110 70
-0.0235811 0.105293 0.0306406 124 104 67
0.0149321 0.119609 -0.0050873 148 120 79
-0.00381721 0.114689 -0.00405235 141 113 73
-0.00355646 0.00652354 -0.0138698 129 107 71
-0.00154611 0.00180122 -0.05311 124 101 69
-0.000491177 -0.0021373 -0.0810241 119 96 63
0.0169567 0.00786607 0.0191101 142 113 76
0.0183724 0.00786045 0.0191913 138 111 72
-0.0342221 0.0107306 0.0298916 130 113 75
-0.0327606 0.0107663 0.0302717 116 97 61
-0.0365851 0.152639 0.00754138 157 133 86
-0.0319677 0.131503 0.0224639 67 51 31
-0.0557986 0.00386238 0.0325583 83 66 48
-0.05285 0.0117437 0.077279 110 94 68
-0.0187925 0.145304 0.0217423 152 125 77
0.0187471 0.0037619 0.0192657 141 112 75
0.0200829 0.00384169 0.0202867 129 102 68
-0.0114028 0.10449 0.0392848 136 108 66
0.0219949 0.00658338 0.0193327 149 120 79
-0.0233522 0.0857053 0.0174077 129 103 58
0.00852998 0.0083313 0.0197496 135 106 69
0.0563306 -0.0419255 -0.215789 63 53 46
0.051505 -0.0346197 -0.164784 64 52 47
0.00818099 0.0717617 -0.00683503 103 73 37
0.0320112 0.0203178 0.00281577 129 96 61
-0.0730787 0.00718049 0.0489391 48 37 26
-0.0778728 0.00345542 -0.0393367 76 68 57
-0.0810312 8.0416e-05 -0.0703243 68 60 48
-0.0804615 -0.00183937 -0.0839563 70 62 50
-0.00773884 0.140321 -0.00649301 146 119 77
-0.00631655 0.140278 -0.00590038 147 120 76
-0.00647126 0.140258 -0.00554372 147 120 77
0.0171622 0.114379 -0.00525628 137 105 66
-0.0327992 0.136172 0.0249441 148 127 82
-0.011812 0.132517 -0.0033923 127 100 62
-0.0102371 0.132653 -0.00465637 121 95 59
-0.0169858 0.128603 0.0122701 124 97 57
-0.0177542 0.128206 0.00347804 123 97 60
-0.041954 0.0197819 -0.0255491 111 102 80
-0.00610764 0.0268144 -0.011462 25 17 8
-0.0434109 0.148861 0.0073803 79 69 41
0.032868 0.0476347 -0.00636618 96 66 31
-0.0475298 0.152847 0.00367412 69 62 35
-0.0457511 0.13776 -0.0226467 78 66 43
0.0147517 0.0947423 -0.0129242 105 91 71
0.0112732 0.0478375 -0.0113828 163 134 94
-0.0201025 0.152745 0.00516968 170 152 107
-0.0188506 0.152619 0.00665412 58 48 36
-0.0251013 0.0567574 0.0268848 106 95 72
-0.0236885 0.056729 0.0267957 89 73 44
0.0306823 0.0885552 -0.0137651 63 44 20
0.0317693 0.088546 -0.0118241 105 81 52
-0.0449753 0.0111546 0.0298195 134 109 66
-0.0347109 0.142053 0.00647795 161 138 90
-0.000924614 0.0959784 -0.00285445 79 56 24
0.000559642 0.0959492 -0.00227977 134 110 73
-0.026789 0.0837587 0.0270567 123 101 62
0.00816762 0.0176694 0.00755424 33 19 6
-0.0277889 0.0317005 0.0262855 103 81 48
-0.0261747 0.0317438 0.0269361 118 99 62
-0.00156343 0.0301263 -0.00807597 154 117 66
-0.00270111 0.0298869 -0.0101416 118 84 47
-0.0278264 0.00795421 0.0309992 100 79 47
-0.0234408 0.0268116 0.0273198 81 62 35
0.0247542 0.123042 -0.0087421 175 147 108
0.0262997 0.123039 -0.00828975 47 35 22
-0.0131286 0.140974 0.00897067 147 120 75
-0.026882 0.0786892 0.0267085 134 115 74
0.0354648 0.00315166 0.00326624 115 85 53
-0.0124583 0.0994585 0.0121366 57 37 10
0.0406744 0.00536547 0.00350776 128 95 55
0.0421486 0.00535485 0.00355846 144 110 67
-0.000514357 0.134027 -0.00450347 122 95 53
-0.00889054 0.0133845 0.0322271 148 123 82
-0.0326455 0.0170471 0.0302648 108 88 54
-0.00548556 0.11931 -0.00446541 135 108 66
-0.0278443 0.0187616 0.0308487 103 85 58
-0.0264698 0.0187443 0.0309335 133 113 81
0.0177176 0.109112 -0.00523596 145 116 75
0.0192142 0.109087 -0.00530197 129 98 60
0.0265213 0.0171361 0.0160004 129 98 62
0.0199583 0.105344 -0.00550057 135 106 65
0.00124869 0.0492608 -0.00465889 80 53 21
0.0027712 0.0492537 -0.00419445 167 135 83
0.0119333 0.107494 -0.00469466 141 112 71
0.0136118 0.107517 -0.00497344 130 100 59
-0.011907 0.0106855 0.032305 134 112 75
-0.0174131 0.0150414 0.0310057 116 93 64
-0.0252314 0.00734702 0.0310183 114 94 62
-0.0238157 0.00728977 0.0308348 129 110 75
-0.0267385 0.00190798 0.0395789 66 58 50
0.0196588 0.00667925 0.019212 143 115 75
0.0292123 0.0961881 -0.00543479 67 47 17
0.0308286 0.0961891 -0.00530636 144 117 77
0.0294788 0.113039 -0.00618413 128 108 84
-0.023489 0.106702 0.0302613 153 131 87
-0.0188101 0.102974 0.0417087 133 106 65
-0.00480333 0.137229 -0.0044474 153 128 85
-0.0250372 0.110425 0.0304568 159 135 90
0.0381196 -0.00305216 0.0347339 60 50 45
-0.0688277 0.000804239 -0.0378989 90 80 66
-0.0705604 0.00544254 -0.000416928 72 62 48
0.0180382 0.0119674 0.0193967 142 114 72
-0.0313146 0.0303474 0.0227832 135 111 75
-0.0313169 0.0317919 0.0229585 130 108 75
-0.0157802 0.138405 0.00711106 157 130 84
-0.0144348 0.139398 -0.00615428 165 137 91
-0.0200279 0.137259 0.0242785 150 128 83
-0.0318164 0.022747 0.177202 68 56 48
-0.00247191 0.0733631 -0.0125286 45 22 4
-0.0458304 0.131156 -0.028652 16 7 0
-0.0441766 0.1311 -0.0281037 118 106 73
-0.037031 0.132241 0.0218881 110 94 63
-0.0358149 0.132455 0.0226184 58 45 25
-0.0316009 0.0601834 -0.0104113 52 35 6
-0.034865 0.113826 0.0207313 101 78 44
-0.0432693 0.0122727 0.0301979 176 149 104
-0.0418114 0.0121962 0.0300048 123 103 71
0.00941979 0.127318 -0.00471052 106 82 46
-0.0400216 0.147551 0.0125429 52 37 7
-0.0096086 0.135595 -0.0119992 127 102 65
-0.03672 0.128553 0.0184085 112 94 58
-0.0315098 0.0792277 -0.00582566 132 111 70
-0.0229115 0.0778762 -0.0348514 143 120 81
0.00823101 0.0407501 -0.00630177 135 105 69
-0.00235526 0.0422202 -0.00909779 142 106 65
-0.0298156 0.120636 0.0247176 80 60 29
-0.0282258 0.12063 0.0245923 97 78 48
0.0358414 0.0834801 -0.00808992 124 93 53
0.0377066 0.083673 -0.00725445 164 130 85
-0.0111267 0.126396 -0.0106176 142 115 73
-0.0192155 0.0229388 0.0315464 143 118 77
-0.0171975 0.0228306 0.0310008 110 85 53
-0.0509282 0.155444 -0.000965677 60 49 37
-0.0298951 0.00794777 0.0307908 94 75 44
0.0322861 0.0554506 -0.00758616 121 95 63
0.0336552 0.0555045 -0.00610793 165 128 82
0.0124232 0.0198957 0.0195253 67 47 30
-0.0302892 0.0730446 0.0232274 114 101 73
-0.0033312 0.144179 -0.00737344 164 134 85
-0.00136711 0.144292 -0.00828226 153 123 75
-0.0455485 0.157757 0.00356628 83 66 39
-0.0441461 0.15769 0.00383475 102 87 61
0.00257723 0.151111 -0.0583314 154 127 77
-0.0112541 0.145713 -0.00852685 135 105 62
-0.0301831 0.139918 0.0249654 116 100 56
0.0115066 0.102796 -0.00517196 101 72 42
0.00163978 0.134239 -0.0043902 123 97 57
0.0379038 0.00275596 0.00383227 101 75 53
-0.0304211 0.0146668 0.0301884 119 101 65
0.034435 0.10428 -0.00648806 151 119 78
0.0348395 0.00835238 0.00298812 134 101 64
-0.0304631 0.0199948 0.0300587 102 82 55
-0.0289814 0.0200126 0.0303597 97 78 51
-0.0246833 0.0410151 0.0267882 143 124 88
-0.0230058 0.0409663 0.0265023 132 109 70
-0.0288375 0.00448825 0.0304392 94 75 50
-0.0273939 0.00456934 0.0311805 101 83 53
-0.0385225 0.00797331 0.0302555 114 95 61
-0.0371571 0.00799284 0.0304928 118 97 61
-0.0443518 0.00619672 0.0300945 115 94 57
-0.0429368 0.00616512 0.0300873 98 77 42
-0.015157 -0.0101281 -0.0459587 66 55 45
-0.0362391 0.00279304 0.0300178 69 54 35
-0.0347697 0.00270975 0.0298353 64 52 36
-0.00613708 0.110308 -0.00430897 145 117 75
-0.00173001 0.0242166 0.00830553 135 102 60
0.0466834 -0.00672419 -0.191809 131 100 65
0.00808682 0.0838642 -0.00534827 145 111 65
0.0110747 0.084672 -0.0109502 165 133 81
0.018605 0.0243171 0.0186948 178 148 105
-0.0223029 0.0310298 0.0261565 136 110 72
-0.0214835 0.129114 0.0214286 155 134 91
-0.0246671 0.00406064 0.0318489 77 59 33
-0.0255548 0.0160404 0.0310848 124 104 69
-0.0284702 0.149655 0.0203125 135 114 68
-0.0207354 0.00581881 0.0444036 74 57 33
-0.0159673 0.00452012 0.0323199 125 105 73
0.0377475 0.013542 0.00294722 121 89 55
0.0393081 0.013522 0.00295205 135 101 62
-0.0488497 0.0103507 0.0931676 57 48 40
-0.0461702 0.00973367 0.0890941 67 57 46
0.0168211 0.119036 -0.00501992 162 133 89
-0.0281827 0.105375 0.0308193 148 130 86
-0.00719052 0.112511 -0.00409897 146 119 75
-0.00881668 0.151214 -0.0104095 144 120 86
-0.00722905 0.151211 -0.0106548 140 116 82
0.0341516 0.0194803 0.00222471 122 92 56
0.00215847 0.149073 -0.0105802 164 134 88
0.00351835 0.148991 -0.00967437 177 149 104
0.0048071 0.106316 -0.0964613 130 104 61
0.00853286 0.106493 -0.102518 131 103 64
-0.0849714 0.00845616 0.00349872 85 75 61
-0.0861055 0.0080761 0.0098468 70 60 46
-0.0849757 0.00860591 0.00358318 85 76 62
-0.0814031 0.00552156 -0.0122078 78 68 53
-0.00376146 0.134176 -0.00406898 117 93 54
-0.0306981 0.116863 0.0246807 50 38 22
-0.00388024 0.0260876 -0.0106994 189 156 111
-0.0038547 0.0260541 -0.0106866 188 155 110
-0.00377375 0.0260182 -0.0108078 186 153 108
-0.000885544 0.0264659 -0.00648588 167 134 90
-0.00193186 0.0259903 0.00359895 170 141 100
-0.00186929 0.0259251 0.0033341 169 140 100
-0.00385932 0.0260542 -0.010687 188 155 110
-0.00378122 0.0260162 -0.0108286 187 153 108
-0.00384436 0.0260487 -0.0107371 188 155 110
-0.00375645 0.0260121 -0.0108636 186 153 107
0.0357844 0.0993246 -0.00816936 124 97 63
0.039251 0.10006 -0.00574654 61 45 31
-0.00526152 0.0932328 -0.0161039 19 8 0
-0.00525832 0.0932448 -0.0161525 20 8 0
-0.00363639 0.0939398 -0.0107707 139 114 83
0.0107794 0.136934 -0.0750014 135 107 67
0.00952403 0.134514 -0.0223938 152 124 82
0.0132212 0.133629 -0.0051268 57 42 27
0.010815 0.134124 -0.0364129 137 107 67
0.0118262 0.132384 -0.00516426 139 115 83
0.0114224 0.134112 -0.0109967 81 64 42
0.018049 0.1282 -0.0129218 154 127 86
0.0188005 0.128973 -0.00819507 132 112 86
0.018859 0.130802 -0.0121566 19 8 0
0.0166009 0.130151 -0.0142802 168 138 89
0.0274009 0.0273745 -0.00955087 19 11 4
0.0310866 0.0266338 -0.00784689 161 127 91
0.0305334 0.0278544 -0.011441 155 121 80
-0.0517686 0.153592 -0.0049711 20 7 2
-0.0485953 0.154166 0.00304864 133 125 87
-0.0498809 0.151881 -0.00143968 63 42 13
-0.00629476 0.0983213 -0.00356509 46 26 5
-0.00292512 0.0975818 -0.00277035 89 70 39
0.0318345 0.0308111 -0.00724888 141 107 68
0.0309007 0.0325106 -0.0115017 105 74 39
-0.0023149 0.0338723 -0.00822931 136 100 56
-6.81685e-05 0.034752 -0.0060037 145 115 78
-0.00219494 0.0369526 -0.00854823 122 86 45
-0.00375513 0.0349761 -0.0135758 60 35 10
0.0261132 0.100782 -0.00613729 100 77 44
0.022799 0.100251 -0.00622432 65 45 19
0.000938908 0.0848111 -0.00792982 147 115 68
-0.00188222 0.0840264 -0.0119925 142 113 70
-0.00181043 0.085577 -0.0120178 121 91 52
-0.0236383 0.159228 0.00441086 110 91 67
0.0108098 0.0265412 -0.00813151 149 118 77
0.0138189 0.0264048 -0.00837913 72 63 50
0.0124427 0.0279365 -0.00900134 29 19 14
0.0123413 0.0265925 0.0113925 163 141 109
0.020361 0.112916 -0.00566093 131 103 67
0.0243046 0.112987 -0.00556861 117 94 69
0.0242162 0.112961 -0.00567023 121 99 73
0.024071 0.128361 -0.0363204 167 138 95
0.0222581 0.127542 -0.00858713 115 86 49
0.0326272 0.0854435 -0.0100488 89 62 34
0.0319699 0.0862202 -0.0111307 131 104 72
0.00352608 0.044673 -0.00427999 153 121 70
0.000196966 0.0324829 -0.0062913 148 113 67
0.00378747 0.0325694 -0.00433945 150 115 67
-0.0414012 0.157229 0.00334472 134 114 81
-0.0378928 0.157249 0.00447571 146 122 82
0.0420229 0.0342933 -0.0049466 151 119 76
0.0245137 0.11912 -0.00723936 151 130 92
0.0256766 0.117097 -0.011932 114 92 65
0.0248609 0.119184 -0.0083356 150 129 90
0.0342202 0.0487009 -0.00549836 144 111 73
0.0379362 0.048688 -0.0047018 148 115 75
-0.0231628 0.132124 0.0216431 80 60 34
-0.0206498 0.133925 0.0218657 124 103 66
-0.0255629 0.133886 0.0232434 68 55 35
-0.0241046 0.135177 0.0246602 145 128 88
0.0377273 0.0345046 -0.00405401 106 77 39
0.0340417 0.0343171 -0.0049704 150 114 72
0.0340842 0.0345372 -0.00503118 149 113 72
-0.0310903 0.0871495 0.0238179 78 63 35
0.0107954 0.024424 0.0182391 74 47 13
0.010873 0.0242364 0.0184251 72 47 12
0.0101165 0.0252509 0.00206508 166 137 98
0.0107987 0.0244295 0.0182889 74 48 13
0.00507343 0.0900983 -0.00582522 92 66 30
0.0021833 0.0899775 -0.00591184 90 65 29
0.00232639 0.0900419 -0.00590724 103 78 38
0.00299987 0.0922924 -0.00529703 117 92 58
0.0482547 0.0932291 -0.0142945 111 90 66
0.0447135 0.0989175 -0.00697244 164 141 112
0.0484198 0.0985982 -0.00816277 15 9 6
0.0346982 0.0698502 -0.00753363 157 124 80
0.0352326 0.0722102 -0.00759595 139 105 67
0.00716779 0.149428 -0.0110168 174 148 110
0.0102617 0.148784 -0.0111729 14 8 5
0.0272181 0.00320772 0.0183009 42 27 15
0.0240303 0.00364713 0.0201788 134 106 70
0.0242276 0.0035796 0.0197629 133 105 69
0.0329902 0.112657 -0.00679768 148 124 94
0.036255 0.111704 -0.00922365 132 111 88
-0.0217571 0.157157 0.00407621 153 125 79
-0.0181593 0.157312 0.00392298 6 4 2
-0.00934673 0.125987 -0.00489168 140 116 80
-0.00717277 0.125272 -0.00472507 145 117 78
0.00926297 0.0154195 0.0143785 134 113 84
-0.0274621 0.132884 0.0240615 32 18 2
-0.0310293 0.132784 0.0242189 34 22 4
-0.042795 0.150889 0.00855038 145 131 84
-0.0244083 0.129073 0.0217354 119 96 55
-0.0244066 0.116338 0.0216736 45 25 6
-0.0227402 0.116895 0.0224357 75 54 24
-0.0474649 0.00739857 0.0296512 108 88 52
-0.0505377 0.00731725 0.0236298 207 179 130
-0.0283527 0.0270369 0.026277 104 82 48
-0.0307411 0.0262364 0.0245624 92 71 47
-0.0293176 0.0263001 0.0256349 47 31 13
0.000333582 0.0246403 0.00675936 144 112 70
0.00092562 0.0257012 0.00305126 147 117 78
0.00341931 0.0253033 0.00716944 148 116 75
-0.00374533 0.090154 -0.0131167 15 5 0
-0.00159074 0.0893858 -0.0125906 108 80 46
-0.00267012 0.0916677 -0.0118684 144 116 77
0.0309454 0.0659732 -0.0115466 153 124 83
0.0306754 0.0660006 -0.0115719 98 75 45
0.0307924 0.0659773 -0.0114805 129 104 69
0.0327465 0.0660953 0.0136622 156 121 76
0.0336422 0.0660713 -0.00742579 147 117 78
0.0448605 0.0266197 -0.0109915 159 121 76
0.0468012 0.025179 -0.0101036 125 106 80
0.0475063 0.0271189 -0.00504096 11 6 1
-0.0107989 0.0202486 0.0226678 116 95 70
-0.00984354 0.0205354 0.0311402 162 140 105
-0.0314791 0.0460065 0.0224076 92 70 38
0.0192033 0.116756 -0.00486921 130 102 60
-0.0324211 0.116686 0.0237244 81 64 43
-0.0346853 0.117146 0.0249035 37 25 7
-0.0301549 0.0972055 0.0286061 123 103 72
-0.0269551 0.0983263 0.0293791 148 130 97
-0.00474842 0.150467 -0.0103085 171 146 103
-0.000847385 0.15067 -0.0108382 128 104 74
-0.0240077 0.14913 0.0173201 183 157 104
-0.0255629 0.151146 0.0178139 145 120 78
-0.0272467 0.149399 0.0202169 137 112 71
0.00595232 0.0847941 -0.00643874 105 77 39
0.00197824 0.0848105 -0.00671356 93 65 31
0.0449369 0.00325863 0.00312826 130 102 66
0.0479927 0.00296968 0.00158625 39 29 22
0.0481953 0.00293084 0.00168095 36 27 20
-0.0261267 0.0885435 0.0264627 76 56 31
-0.0296875 0.088556 0.0253986 32 20 3
0.0323436 0.0568412 -0.00811343 112 83 51
0.0338069 0.058447 -0.00641498 135 100 59
0.0313874 0.0599286 -0.00882062 147 115 79
0.0301348 0.0590608 -0.0113025 46 28 8
0.000489493 0.0377972 -0.00578472 77 49 22
0.00345298 0.0378412 -0.00417595 147 113 66
0.00185295 0.0363834 -0.00401134 134 107 72
0.000200936 0.0377918 -0.00591245 97 68 38
0.000213897 0.0377943 -0.00587891 95 67 37
-0.0245221 0.121122 0.0243142 115 91 58
0.011113 0.0892528 -0.0114728 143 113 61
0.037182 0.0692022 -0.0068852 64 42 14
0.0398306 0.0676084 -0.00723837 117 89 54
0.041477 0.0689939 -0.0073074 160 128 84
0.0413995 0.0690683 -0.00723673 160 128 84
0.0413203 0.0691447 -0.00708771 159 127 83
0.0397818 0.0537603 -0.00485868 137 110 74
0.0411124 0.0523952 -0.00520486 161 127 85
0.0443684 0.0533089 -0.0114532 143 111 70
0.0443127 0.0882353 -0.0129163 165 135 93
-0.000250614 0.0211415 0.00687231 141 109 68
0.00217802 0.0202815 0.00742191 100 68 28
0.00222176 0.0217573 0.00729931 146 113 70
0.00528837 0.0673354 -0.00591015 128 97 56
0.00874768 0.0672075 -0.00777183 125 96 56
0.0066052 0.0658428 -0.00498591 169 138 95
0.00676953 0.0688315 -0.00583196 127 100 69
0.00374586 0.0938616 -0.00432041 103 79 47
-0.0291316 0.0644738 0.0231088 81 67 48
-0.0290669 0.0659132 0.0236492 60 49 34
-0.0261167 0.0652658 0.0264558 74 57 24
0.00851811 0.123272 0.02291 165 136 93
0.00693162 0.125536 -0.00487361 149 120 79
0.00900116 0.125571 -0.00495287 124 98 63
0.0080926 0.0953776 -0.00426816 78 56 26
0.0110874 0.096724 -0.00297229 103 84 51
0.00967919 0.0968721 -0.00325089 144 118 80
0.0100689 0.0953831 -0.00456715 82 62 32
-0.0175879 0.125098 -0.011973 121 95 56
-0.0146949 0.125199 -0.00439659 133 106 65
0.00415816 0.12549 -0.00501394 142 114 75
-0.0318252 0.128016 0.0222082 105 84 49
-0.028931 0.128094 0.021985 137 116 75
-0.00958109 0.00487497 0.0310324 147 123 83
-0.00963033 0.0047977 0.0309368 145 121 82
-0.00957684 0.00466043 0.0308232 145 122 83
-0.00595735 0.00661997 0.0447945 85 61 39
-0.00725701 0.00362481 0.0295082 51 34 17
-0.0269371 0.0941305 0.0294777 113 97 64
-0.0237437 0.0941552 0.0279788 41 28 5
-0.0238467 0.0941545 0.0280615 42 29 5
-0.0288799 0.0687755 0.0245358 25 12 0
-0.0255438 0.0688034 0.0268588 132 114 83
-0.0303087 0.0829177 0.0243758 47 34 17
-0.0316534 0.0815006 0.0226644 149 128 87
-0.0313938 0.0843258 0.0222918 130 110 72
0.0374457 0.106713 -0.0578886 143 112 71
0.039703 0.105372 -0.141837 135 106 65
0.0382176 0.108757 -0.177958 140 113 74
0.039812 0.105388 -0.142424 135 106 66
0.0384425 0.108163 -0.113471 146 116 75
0.0383608 0.107795 -0.159564 138 109 67
0.0403794 0.107774 -0.159697 135 106 65
-0.0288692 0.0230643 0.0296964 102 79 50
-0.0268957 0.0246038 0.030557 137 115 77
-0.0255142 0.0231244 0.0310951 82 58 29
0.000650019 0.107308 -0.00438091 154 127 85
-0.00216651 0.107997 -0.00434847 138 110 70
-0.0114789 0.116247 -0.00443124 146 119 74
-0.011362 0.116259 -0.0046603 147 120 75
-0.00762064 0.11629 -0.00444731 140 112 68
-0.0114831 0.116249 -0.00446724 146 118 74
0.0214991 0.0154583 0.0188762 142 113 76
0.0224113 0.0267755 -0.00939732 41 34 24
0.0204794 0.0259332 -0.000414774 143 121 92
0.0193197 0.0263406 -0.00706913 108 97 82
0.0234278 0.0266608 -0.00266567 146 131 112
-0.000715134 0.0998603 -0.00395599 165 134 87
-0.00297648 0.0465586 -0.012783 110 81 45
-0.00296658 0.046547 -0.0128017 111 82 45
-0.000813836 0.0483707 -0.00756401 173 139 89
-0.00292022 0.0465703 -0.0128329 119 90 51
0.000877799 0.0469601 -0.00611198 83 56 28
-0.00293372 0.0465711 -0.0128243 117 88 50
0.00424099 0.0278944 -0.00441827 127 96 58
0.00815598 0.027729 -0.00467407 121 89 54
0.0475835 0.0192068 0.00143043 57 43 29
0.0505019 0.0127699 -0.0795021 139 107 70
0.0525778 0.00529834 -0.132785 135 103 64
0.0522156 0.00544404 -0.13156 135 103 64
0.0525939 0.00528494 -0.132694 136 104 64
0.0450416 0.0200539 0.0024101 148 121 87
-0.0176782 0.108743 0.036701 131 103 62
-0.0171587 0.108993 0.0473794 127 99 59
-0.016981 0.109007 0.0470765 129 101 61
-0.0186328 0.110042 0.0392874 122 95 57
-0.01559 0.109576 0.0489296 134 106 66
0.0110226 0.00723819 0.0561455 36 24 16
0.00997782 0.00486843 0.0334428 79 58 37
0.00980709 0.00291496 0.0205314 86 65 42
0.0126314 0.00491212 0.0320264 98 75 50
-0.00593385 0.016871 0.0299341 148 120 80
-0.0118972 0.00258826 -0.0765105 118 96 62
-0.00874047 0.00740733 -0.0386205 124 103 68
-0.00896683 0.0114319 -0.0179649 129 107 71
0.0273565 0.0223367 -0.015123 162 133 95
0.0264088 0.0228374 0.0100383 151 117 79
0.0277981 0.0167311 -0.0514591 142 111 71
0.0265 0.0246473 0.00917964 174 140 98
-0.00628757 0.00906223 0.0407198 132 106 70
-0.00677488 0.00727492 0.0261248 139 112 74
-0.00609833 0.0130341 0.0632731 134 106 71
-0.00899993 0.00754365 0.0168945 142 119 81
-0.00623694 0.0108806 0.0393365 113 86 53
0.0456097 0.00864869 0.00292646 136 104 61
0.045141 0.00719011 0.00346671 160 128 85
0.0483391 0.00663986 0.000833986 41 31 24
0.0450371 0.0430572 -0.0343481 157 124 81
0.0448705 0.0451144 -0.0108125 159 126 89
0.00305193 0.100542 -0.00416844 141 111 67
0.00320294 0.100648 -0.004699 140 109 66
0.00460092 0.100657 -0.00474032 144 113 69
0.00288281 0.0989235 -0.00305062 159 130 85
0.0059105 0.0988983 -0.00362038 136 107 63
0.0204115 0.101511 -0.00581606 149 123 85
0.0181215 0.0995569 -0.00624171 42 24 2
0.0170656 0.101275 -0.00547589 138 115 80
0.0347553 0.093305 -0.00549196 79 57 29
0.03106 0.0939288 -0.00799021 36 21 3
-0.0331055 0.123822 0.0215525 86 69 40
-0.0303738 0.124561 0.0217987 115 94 62
-0.0305518 0.114463 0.0212483 74 50 23
-0.027771 0.114465 0.0206181 130 103 67
-0.0279472 0.11198 0.0378433 138 112 66
-0.0287161 0.11297 0.0283479 143 116 72
0.0082063 0.139241 -0.00660446 173 143 93
0.00430235 0.139047 -0.0055944 165 134 88
-0.00240359 0.127548 -0.0040181 113 89 54
-0.000938593 0.12613 -0.00468365 149 124 87
0.0355674 0.0287479 -0.00363573 107 78 41
0.0372686 0.0267965 -0.00370856 166 130 88
0.0348741 0.0257997 -0.00680151 174 144 108
-0.0019286 0.066445 -0.0128611 122 93 52
-0.00197186 0.0664334 -0.0132238 106 78 40
-0.0019875 0.0648922 -0.0135677 132 103 61
-0.00197488 0.0664384 -0.0130751 110 81 43
0.000508912 0.0651081 -0.00685795 153 123 79
0.00065618 0.066611 -0.00726502 131 103 64
-0.00327033 0.121588 -0.00448373 164 139 97
0.000660531 0.122386 -0.00427936 144 117 75
-0.00856177 0.0257416 0.0140367 176 146 103
-0.0102627 0.0250817 0.0138092 159 129 88
-0.00825425 0.0253815 0.0235006 155 123 81
0.0400005 0.0830989 -0.00706808 155 123 79
0.045963 0.0838178 -0.0137251 33 22 15
-0.0221956 0.0487751 0.0250151 142 121 85
-0.0221697 0.0487856 0.0249663 142 120 85
-0.0245434 0.0482007 0.0268544 102 85 54
-0.0245934 0.0482419 0.0268634 102 84 53
-0.0290569 0.0451837 0.0236129 82 68 47
-0.0290088 0.0452557 0.0236513 76 62 43
-0.0252166 0.0453539 0.0267499 115 98 68
-0.0251132 0.0454032 0.0267394 118 99 70
-0.0252651 0.0454338 0.0266515 114 96 66
-0.0114083 0.120737 -0.00410255 141 115 74
-0.00758601 0.120778 -0.00460927 132 104 62
0.041821 0.0582779 -0.00678175 144 114 75
0.0377084 0.0584654 -0.00525505 108 76 48
0.0319008 -0.00138503 -0.0955989 138 112 72
0.0313417 -0.00483906 -0.110852 139 113 76
0.0282766 0.0160893 0.0441545 136 103 62
0.0307411 0.00302874 -0.0519752 137 109 71
0.0303463 0.011072 0.00280977 151 119 82
0.0334256 -0.0111365 -0.154091 137 112 73
0.0306522 0.0113744 0.00832999 136 102 62
0.0320051 -0.0101166 -0.158286 132 106 70
0.0310226 0.00668328 -0.0304205 152 124 84
0.0301806 0.00642005 -0.0405993 133 105 68
0.0280267 0.0175805 0.0429673 130 97 59
0.0302939 0.0140751 0.0162828 131 99 63
-0.000990593 0.0196022 0.0270218 135 106 73
-0.00216008 0.0175581 0.0196582 144 118 84
-0.0025426 0.0190285 0.0159615 127 96 63
-0.0012112 0.0196568 0.0274225 135 106 73
0.0411908 0.0226547 0.00252608 146 113 71
0.046631 0.0203021 -0.0265982 135 102 64
0.0449991 0.0228631 -0.00137631 118 86 50
-0.0306147 0.0921592 0.0275167 16 9 0
-0.0306452 0.0920516 0.0275286 16 10 0
-0.0299932 0.0942572 0.0279579 75 61 31
-0.0332635 0.0934998 0.0241755 19 12 5
-0.0473764 0.00232363 0.144105 24 18 15
-0.0392594 0.0194804 0.0267111 197 169 124
-0.0362605 0.0194857 0.0295781 118 93 57
0.00921066 0.114821 -0.00474927 122 95 55
0.0129637 0.115083 -0.00517111 138 110 69
-0.0347827 0.0135709 0.0299076 113 91 57
-0.0381899 0.0135157 0.0302086 104 83 52
-0.0235044 0.110189 0.0303112 156 131 86
-0.020088 0.110269 0.0292218 138 111 70
0.0353319 0.0898117 -0.00779247 66 45 21
0.0389549 0.090058 -0.0070557 93 70 40
0.0363836 0.088015 -0.00733952 101 77 47
-0.0320995 0.157871 0.00490536 151 125 81
-0.0298132 0.158221 0.00438369 152 125 76
-0.0316834 0.160886 -0.00140185 17 4 0
