ply
format ascii 1.0
element vertex 1155
property float x
property float y
property float z
property uchar diffuse_red
property uchar diffuse_green
property uchar diffuse_blue
end_header
-0.02988 0.132234 0.0227011 40 25 5
-0.030335 0.133441 0.0248945 84 72 44
-0.0310293 0.132784 0.0242189 34 22 4
-0.0437398 0.151413 0.00946917 162 141 87
-0.0430439 0.150779 0.00865804 151 136 90
-0.0433692 0.150777 0.00887558 155 140 91
-0.04255 0.15017 0.00799621 108 95 58
-0.0437788 0.151459 0.00952019 161 140 86
-0.042795 0.150889 0.00855038 145 131 84
-0.0260927 0.127203 0.0213998 79 56 28
-0.0268029 0.12793 0.0212633 95 75 50
-0.0253648 0.127899 0.0214912 132 112 73
-0.026543 0.126966 0.0213886 79 58 31
-0.0265281 0.128379 0.021415 79 60 35
-0.0272557 0.127677 0.0212885 113 92 61
-0.0265601 0.126775 0.0214017 82 62 34
-0.0265587 0.128188 0.0213717 83 64 39
-0.0272932 0.127473 0.0213011 109 87 55
-0.0258181 0.127483 0.0215613 105 83 51
-0.0260291 0.130013 0.0217573 99 76 43
-0.0267732 0.129337 0.0214258 71 52 25
-0.0253308 0.129297 0.0217549 97 75 35
-0.0265136 0.129775 0.0216396 81 60 30
-0.0272461 0.129086 0.0213595 100 81 50
-0.0265641 0.129583 0.0215641 74 52 25
-0.0279002 0.128357 0.0215829 130 109 71
-0.0279371 0.128143 0.0215599 131 109 71
-0.0246269 0.128594 0.0215889 124 102 64
-0.0250408 0.128201 0.0215997 127 107 69
-0.0251199 0.129776 0.0217404 122 98 59
-0.0244083 0.129073 0.0217354 119 96 55
-0.0272384 0.129574 0.0214731 95 75 45
-0.0279484 0.128839 0.0216641 124 102 64
-0.0236873 0.116225 0.0215987 53 30 6
-0.0244647 0.116788 0.0239503 48 30 11
-0.0228576 0.116885 0.022621 74 53 23
-0.0234072 0.119184 0.0242509 128 108 72
-0.0241269 0.118478 0.0243438 85 66 37
-0.0227065 0.118478 0.024092 117 100 71
-0.0234763 0.119015 0.0242733 126 107 72
-0.024208 0.118302 0.0243722 76 58 31
-0.0227451 0.118322 0.0240839 116 99 70
-0.0237808 0.11889 0.0242957 110 89 55
-0.024549 0.118175 0.0243031 55 39 18
-0.0255802 0.117474 0.024074 40 29 15
-0.022037 0.117821 0.0230925 98 77 50
-0.0219935 0.117683 0.0229729 97 77 48
-0.0229126 0.116879 0.0227173 74 53 23
-0.0221477 0.117589 0.0228484 98 78 52
-0.0235908 0.115808 0.0212906 66 42 14
-0.0242104 0.116436 0.0229214 49 28 7
-0.0228455 0.116498 0.0215408 64 42 12
-0.0236558 0.116231 0.0214984 53 30 6
-0.0228212 0.116888 0.0225656 75 54 23
-0.024905 0.11708 0.0242071 42 27 12
-0.0254728 0.117469 0.0241628 37 26 13
-0.0228928 0.116882 0.0226672 74 53 23
-0.0235588 0.115805 0.0213312 67 43 15
-0.0234099 0.115651 0.021254 80 55 24
-0.0241419 0.116323 0.0219034 48 27 6
-0.0226645 0.116364 0.0212055 73 48 18
-0.0226401 0.116896 0.0224293 77 55 25
-0.0230007 0.118909 0.0241773 136 118 84
-0.022258 0.118253 0.0235529 97 79 53
-0.0244066 0.116338 0.0216736 45 25 6
-0.0227296 0.116364 0.0212197 71 47 16
-0.0218545 0.117031 0.0219656 87 65 34
-0.0227402 0.116895 0.0224357 75 54 24
-0.0485914 0.00557717 0.0301013 121 101 65
-0.0493173 0.00626256 0.0298204 125 101 55
-0.0478876 0.00623556 0.0298448 106 87 53
-0.0489534 0.00540382 0.0301211 121 102 65
-0.049696 0.006072 0.0296964 127 102 57
-0.0482169 0.00605953 0.0299648 112 93 58
-0.048569 0.00583103 0.0300535 119 100 63
-0.0478002 0.00646216 0.0298459 109 89 55
-0.0485282 0.00847791 0.030478 191 169 129
-0.0478645 0.00767352 0.0299408 106 86 52
-0.0500651 0.0070589 0.0267731 197 168 118
-0.0486677 0.00872773 0.0306876 210 187 146
-0.0478717 0.0078965 0.0300534 107 87 53
-0.0502663 0.00670628 0.0278826 163 136 87
-0.0500712 0.00705081 0.0267176 198 168 118
-0.0505646 0.00662584 0.0284834 153 126 79
-0.0503461 0.00698158 0.0278277 184 156 106
-0.0471831 0.00691506 0.0297266 113 92 55
-0.0475076 0.00673552 0.0299363 112 92 56
-0.0470452 0.00716436 0.0301049 110 90 53
-0.0503059 0.00669646 0.0278129 163 136 88
-0.0493216 0.00586147 0.0300045 123 100 58
-0.05039 0.00637412 0.0284519 138 112 65
-0.050609 0.00763964 0.019489 211 182 134
-0.0508442 0.00747649 0.0232971 208 180 131
-0.0489432 0.00903504 0.0308392 226 202 156
-0.050524 0.00730696 0.0235613 207 179 130
-0.0483052 0.00824611 0.0304249 153 133 96
-0.0506317 0.00734194 0.0207619 205 177 129
-0.0505154 0.00756037 0.0269601 210 181 131
-0.0499549 0.00667904 0.0277239 161 133 84
-0.0507178 0.00722377 0.021567 207 179 132
-0.051084 0.00737464 0.028538 201 173 124
-0.0509543 0.00717554 0.0286774 189 161 112
-0.0474649 0.00739857 0.0296512 108 88 52
-0.0505377 0.00731725 0.0236298 207 179 130
-0.029032 0.025013 0.0293827 135 114 82
-0.0299596 0.0253993 0.0263393 122 106 81
-0.0284588 0.0255036 0.0275245 126 105 73
-0.0290787 0.0251756 0.0294556 138 116 86
-0.0284984 0.0256413 0.0274634 120 99 67
-0.0294897 0.0246337 0.0297622 123 101 69
-0.0302879 0.0250905 0.0273113 140 122 95
-0.0287971 0.0251938 0.0287275 136 114 84
-0.02914 0.0274242 0.0253572 47 29 9
-0.0283902 0.0268022 0.0263515 97 75 42
-0.0297144 0.0274417 0.0240438 77 59 42
-0.0299003 0.0261746 0.0243927 67 52 34
-0.0277231 0.0261497 0.0270401 121 100 68
-0.027682 0.0262801 0.0270132 120 98 68
-0.0277348 0.0259828 0.0297664 130 108 75
-0.0301347 0.0255754 0.0253544 109 93 70
-0.0289181 0.0275891 0.0256039 53 31 8
-0.0289953 0.0277059 0.025656 50 30 7
-0.0283527 0.0270369 0.026277 104 82 48
-0.0294045 0.0252732 0.0301859 141 120 89
-0.0299411 0.0255401 0.0250792 105 91 67
-0.0312167 0.025972 0.0248206 124 104 73
-0.0308199 0.026114 0.0246475 96 76 50
-0.0299919 0.0268546 0.0239686 82 65 45
-0.0307411 0.0262364 0.0245624 92 71 47
-0.0293176 0.0263001 0.0256349 47 31 13
0.00121356 0.0241337 0.00729961 138 107 68
0.000468553 0.0248965 0.00735091 142 111 72
0.00197209 0.0249269 0.0078971 123 93 54
0.00135088 0.0255627 0.00781987 121 93 57
0.000604202 0.0248092 0.00753585 141 109 70
0.00214145 0.024798 0.00783487 127 96 58
0.00182321 0.0239077 0.00752936 131 101 61
0.00257793 0.0246403 0.00766335 139 108 66
0.0013994 0.0260517 -0.00271541 168 137 102
0.000766249 0.0258685 0.00255445 158 128 91
0.00226294 0.0258372 0.0025314 152 123 87
0.00157184 0.026368 0.00128336 158 126 89
0.000785955 0.0258167 0.00296709 154 124 87
0.00230575 0.0257348 0.00260165 149 120 83
0.000135756 0.0255616 0.00124303 162 134 94
-9.04471e-05 0.0252574 0.00368834 150 119 78
-0.000282971 0.0252425 0.0043501 150 119 77
0.000452954 0.024723 0.00753875 140 108 69
-0.00031976 0.0251956 0.00474103 150 120 76
0.00272374 0.0255999 0.00739127 131 102 63
0.00222754 0.0262705 0.00769915 150 121 85
0.00291546 0.0254765 0.00742847 136 107 67
0.00189198 0.0261832 0.00787086 143 115 78
0.00156833 0.0263875 0.00146853 158 126 89
0.000333582 0.0246403 0.00675936 144 112 70
0.00150791 0.0264091 0.0016647 158 126 89
0.00174325 0.0263649 0.00226291 156 125 88
0.00243534 0.0255854 0.00227123 145 116 79
0.00092562 0.0257012 0.00305126 147 117 78
0.00270757 0.0260139 0.00656385 142 113 76
0.00341931 0.0253033 0.00716944 148 116 75
-0.00273738 0.0885721 -0.0128559 29 13 0
-0.00270859 0.0900923 -0.0126351 83 60 29
-0.0034745 0.0893456 -0.0132655 13 4 0
-0.00198769 0.089322 -0.0126698 104 76 42
-0.00249341 0.0886013 -0.0126712 46 25 3
-0.0024796 0.0901246 -0.0126781 101 76 42
-0.00320575 0.0893714 -0.0131666 21 8 0
-0.0017956 0.0893599 -0.0130042 108 80 45
-0.00221182 0.0886244 -0.0126985 75 50 22
-0.00219551 0.090147 -0.0124432 114 86 50
-0.00290407 0.0893896 -0.0130305 35 18 1
-0.00140531 0.089363 -0.00912742 79 53 25
-0.0020577 0.0915738 -0.00949716 139 114 78
-0.00132541 0.0908043 -0.00911949 106 81 53
-0.00217865 0.0916204 -0.0100559 150 124 87
-0.00145212 0.0908491 -0.00912979 109 84 56
-0.00219953 0.0916503 -0.0100105 150 125 88
-0.00148435 0.090883 -0.00907529 109 85 57
-0.00348334 0.0908658 -0.01292 37 19 1
-0.00424347 0.0901181 -0.0133424 9 3 1
-0.00327182 0.090891 -0.0125788 58 37 11
-0.00401343 0.0901414 -0.0134201 10 3 0
-0.0030339 0.0909109 -0.0125461 90 66 34
-0.00374533 0.090154 -0.0131167 15 5 0
-0.000646969 0.0900305 -0.00796026 95 71 39
-0.00108378 0.0901247 -0.00884215 89 66 37
-0.00159074 0.0893858 -0.0125906 108 80 46
-0.00280573 0.09161 -0.0121532 132 104 65
-0.00277416 0.0916456 -0.0122034 134 106 67
-0.00267012 0.0916677 -0.0118684 144 116 77
0.0309556 0.0659319 0.00919518 157 124 79
0.0309225 0.0656633 0.0216 154 121 78
0.0309876 0.0652476 -0.0113773 176 144 99
0.0322149 0.0675392 -0.00976613 75 46 13
0.0329011 0.0668254 -0.00793709 115 85 49
0.0319234 0.0660693 -0.00907558 128 98 62
0.0319885 0.0675984 -0.00930848 81 52 18
0.0326997 0.0668421 -0.00859208 113 86 52
0.0325057 0.0676274 -0.0095505 76 50 18
0.0316858 0.0668596 -0.00962904 122 90 55
0.031146 0.065989 0.010895 146 113 71
0.0309454 0.0659732 -0.0115466 153 124 83
0.0309685 0.0674258 0.00882753 124 94 56
0.0306754 0.0660006 -0.0115719 98 75 45
0.0328938 0.0668288 -0.00783507 115 85 49
0.0336093 0.0660711 -0.00744332 147 117 79
0.0315952 0.066751 0.0117971 146 116 77
0.0322628 0.0677486 -0.00447323 85 59 23
0.0329761 0.0668664 -0.00786082 111 82 47
0.032346 0.0677781 -0.00492669 86 60 24
0.0329992 0.0669027 -0.00791953 110 80 45
0.0307924 0.0659773 -0.0114805 129 104 69
0.0324443 0.0660536 -0.00860288 132 104 70
0.0330139 0.0653362 -0.00780316 163 131 90
0.0327663 0.065353 -0.00816597 165 134 94
0.0320114 0.0653066 0.0121972 148 115 70
0.0327465 0.0660953 0.0136622 156 121 76
0.0329371 0.0668368 -0.00757144 113 83 48
0.0336422 0.0660713 -0.00742579 147 117 78
0.0459513 0.0248641 -0.00886425 132 106 76
0.0453154 0.0255605 -0.00982472 159 129 94
0.0461565 0.0282029 -0.0107337 62 44 29
0.0454253 0.0274181 -0.0110342 146 112 75
0.0469046 0.0274337 -0.0105933 16 10 5
0.0462151 0.0277728 -0.0107935 56 39 25
0.0455067 0.0269845 -0.0110903 146 113 78
0.0462853 0.0281705 -0.0107028 43 29 19
0.0455919 0.027371 -0.0110839 141 109 76
0.0470926 0.0273615 -0.0106344 15 9 5
0.0446766 0.0266678 -0.0109872 156 118 73
0.0447658 0.0262011 -0.0113388 165 128 84
0.0448605 0.0266197 -0.0109915 159 121 76
0.0474266 0.0270668 -0.00651517 14 7 2
0.0475275 0.0270814 -0.00540762 12 6 1
0.0468012 0.025179 -0.0101036 125 106 80
0.0472857 0.0265314 -0.00431119 35 26 16
0.0475063 0.0271189 -0.00504096 11 6 1
-0.00947423 0.0198697 0.0313157 170 146 109
-0.0101413 0.020583 0.031221 161 139 105
-0.00874785 0.0205026 0.0307927 131 106 73
-0.009077 0.0198048 0.0313346 164 139 105
-0.00970928 0.0205115 0.031121 161 138 103
-0.00828207 0.0204506 0.0309891 114 87 53
-0.00928614 0.0197364 0.0315354 169 144 108
-0.00989182 0.0204452 0.0312732 165 143 107
-0.0091666 0.021969 0.0250365 99 72 46
-0.00988686 0.0213037 0.0253675 68 45 23
-0.00930321 0.0219643 0.0253341 97 70 45
-0.0100783 0.0212294 0.0250111 70 49 27
-0.00938606 0.0218717 0.0251524 92 67 42
-0.0101758 0.0211918 0.0252278 73 51 30
-0.0106236 0.0204487 0.0241173 112 91 67
-0.00975652 0.0205216 0.0310401 161 139 104
-0.0107989 0.0202486 0.0226678 116 95 70
-0.00779326 0.0205706 0.0256007 123 95 61
-0.00865879 0.0219419 0.0253196 96 69 39
-0.00798149 0.0212058 0.025361 103 74 41
-0.00969732 0.0205175 0.0310154 160 138 103
-0.00719226 0.0205552 0.0261275 126 96 64
-0.00984354 0.0205354 0.0311402 162 140 105
-0.0309858 0.0444134 0.0224556 163 140 103
-0.0301965 0.0451861 0.023356 111 87 54
-0.0311596 0.0444908 0.0222737 161 137 99
-0.0303809 0.0452676 0.0233169 116 91 59
-0.0309775 0.0445663 0.0224106 162 139 103
-0.0302212 0.0453259 0.023307 113 89 56
-0.0309363 0.0472763 0.0223243 159 138 98
-0.0301523 0.0466219 0.0233872 91 69 32
-0.0311099 0.047345 0.0221975 150 127 89
-0.0303368 0.0466913 0.0232697 92 69 34
-0.0309241 0.0474067 0.0223036 161 141 100
-0.0301445 0.0467564 0.0234311 97 74 37
-0.0295264 0.0458957 0.0234184 105 88 60
-0.0298342 0.0459607 0.0232184 98 78 43
-0.0297313 0.0460234 0.0233299 98 79 47
-0.0314791 0.0460065 0.0224076 92 70 38
0.0214444 0.116054 -0.00622607 64 46 28
0.0206979 0.116827 -0.00647514 122 99 65
0.0212487 0.115657 -0.00624195 95 73 51
0.021935 0.116425 -0.00644634 41 25 8
0.0214197 0.119023 -0.00564953 152 128 92
0.0206619 0.11829 -0.00579549 142 119 82
0.0221348 0.118273 -0.0057794 96 77 48
0.021084 0.118649 -0.0056911 143 119 85
0.0203176 0.117909 -0.00597169 143 117 79
0.0212513 0.119007 -0.00569683 152 128 92
0.0204626 0.118249 -0.00593047 151 127 88
0.0196525 0.117131 -0.0055857 129 101 58
0.0197805 0.117478 -0.0059119 134 107 64
0.0206693 0.11532 -0.00638622 154 127 93
0.0199286 0.116078 -0.00635794 152 124 80
0.0192033 0.116756 -0.00486921 130 102 60
-0.0339783 0.115551 0.0228166 45 27 7
-0.0332693 0.116231 0.0232852 54 37 13
-0.0343431 0.115341 0.0221305 51 33 13
-0.0340237 0.115335 0.0346519 52 35 15
-0.0336266 0.11601 0.0229158 44 28 6
-0.0340222 0.118583 0.0243775 100 83 53
-0.0333141 0.117893 0.0239575 81 63 37
-0.0341106 0.118279 0.0243826 93 76 49
-0.0333184 0.117606 0.0238728 72 55 29
-0.0339133 0.118069 0.0236898 77 60 34
-0.0329336 0.117371 0.0238255 86 69 44
-0.0326596 0.117189 0.0237684 87 70 48
-0.0326977 0.116916 0.0236727 87 70 47
-0.0346399 0.115745 0.0246857 50 34 17
-0.0339937 0.115326 0.0348205 52 35 15
-0.0330602 0.115995 0.0233535 57 40 15
-0.0324211 0.116686 0.0237244 81 64 43
-0.0346853 0.117146 0.0249035 37 25 7
-0.0287534 0.0963343 0.0291683 105 89 59
-0.0294851 0.0970518 0.0285228 120 102 70
-0.0280432 0.0970251 0.0294777 99 79 45
-0.0290646 0.0962358 0.0287783 111 95 63
-0.0283408 0.0969263 0.0292841 83 67 35
-0.0287098 0.0992785 0.0294582 53 39 13
-0.0287251 0.0991297 0.0294278 54 40 14
-0.0294662 0.0984481 0.0287786 73 58 33
-0.0300823 0.0984543 0.028611 61 45 23
-0.0307979 0.0977543 0.0287298 122 106 78
-0.0293468 0.0977476 0.028719 115 99 72
-0.0294526 0.0970432 0.0289313 119 101 69
-0.0301549 0.0972055 0.0286061 123 103 72
-0.0273453 0.0971403 0.0300463 142 121 81
-0.0277297 0.0976135 0.0299238 136 116 78
-0.0283666 0.0997105 0.0296395 56 42 14
-0.0276864 0.0990167 0.0296033 96 80 48
-0.0269551 0.0983263 0.0293791 148 130 97
-0.00281342 0.149107 -0.0122265 162 133 87
-0.00355582 0.149701 -0.0107277 170 143 100
-0.00199067 0.149653 -0.0104069 160 133 94
-0.00307145 0.148326 -0.0111819 160 132 83
-0.0039164 0.148927 -0.00987895 165 135 85
-0.00228778 0.148993 -0.0103232 159 129 87
-0.00251305 0.148511 -0.0122078 159 131 81
-0.00343572 0.148945 -0.00952419 163 135 89
-0.00274318 0.151958 -0.0108212 16 4 0
-0.00353215 0.151186 -0.0105784 96 77 54
-0.00199297 0.151223 -0.0110185 49 31 15
-0.00429079 0.150426 -0.0104459 172 146 105
-0.00473501 0.149738 -0.0105058 172 144 93
-0.00434961 0.149771 -0.010431 173 144 96
-0.00120779 0.150424 -0.0106497 137 113 81
-0.00151461 0.149762 -0.0104038 151 124 85
-0.000821918 0.149888 -0.0105691 161 134 94
-0.00232134 0.152077 -0.0110133 13 3 0
-0.00154993 0.151395 -0.0115471 47 29 13
-0.000761141 0.150579 -0.0109037 139 115 83
-0.00318843 0.152029 -0.0106731 20 9 2
-0.00396001 0.151246 -0.0104812 105 85 59
-0.00275764 0.152093 -0.0105778 13 3 0
-0.0035618 0.151316 -0.0105828 83 66 45
-0.00191384 0.151393 -0.0108125 36 20 7
-0.00474842 0.150467 -0.0103085 171 146 103
-0.000847385 0.15067 -0.0108382 128 104 74
-0.0248617 0.14877 0.0187058 178 152 101
-0.0257912 0.147607 0.0201507 174 150 98
-0.0251174 0.148381 0.0196371 176 150 99
-0.025642 0.1474 0.0201218 178 154 100
-0.0257522 0.148894 0.0193915 180 155 109
-0.0263921 0.148046 0.0204303 165 141 94
-0.0249852 0.148227 0.0192668 175 150 97
-0.0257468 0.150995 0.0179559 138 114 73
-0.0263263 0.150077 0.0197587 125 101 60
-0.0250087 0.150243 0.0182543 139 114 68
-0.0259541 0.150698 0.0177301 125 101 61
-0.0264402 0.148594 0.0203317 174 149 104
-0.0268409 0.148965 0.0203668 164 140 97
-0.0260252 0.148005 0.0204974 172 148 99
-0.0268128 0.148694 0.0204132 166 142 98
-0.0243024 0.149566 0.0179073 180 155 103
-0.0249972 0.147211 0.0199057 178 153 98
-0.0256852 0.147892 0.0202144 175 151 99
-0.0244663 0.148206 0.0173462 174 150 95
-0.0250753 0.147398 0.0198651 177 152 98
-0.0245057 0.1484 0.0174694 175 151 97
-0.0251676 0.150648 0.0182261 140 115 70
-0.0244353 0.149944 0.018268 172 147 96
-0.0243197 0.148895 0.017547 180 155 102
-0.0236894 0.149356 0.0172966 182 155 103
-0.0240077 0.14913 0.0173201 183 157 104
-0.0255629 0.151146 0.0178139 145 120 78
-0.0272467 0.149399 0.0202169 137 112 71
0.00440337 0.0831698 -0.00646603 124 95 57
0.0051424 0.0839142 -0.00619982 123 96 59
0.00397211 0.0832335 -0.00644706 148 118 79
0.00321929 0.083998 -0.00594337 136 107 71
0.00467106 0.0839834 -0.00630189 118 89 53
0.00441289 0.0861846 -0.00626448 100 73 42
0.00515738 0.0854209 -0.00625226 118 92 52
0.00391595 0.086257 -0.00628513 104 76 43
0.00321659 0.0855076 -0.00640868 100 73 40
0.00467606 0.0854949 -0.00629013 96 70 34
0.00434423 0.0863163 -0.00621933 98 71 40
0.0051321 0.0855558 -0.00625118 121 95 56
0.0024355 0.0847608 -0.00551144 125 99 61
0.0059035 0.0846569 -0.0063071 108 80 42
0.00545186 0.0847323 -0.00618483 121 94 55
0.00595232 0.0847941 -0.00643874 105 77 39
0.00197824 0.0848105 -0.00671356 93 65 31
0.046436 0.00076937 0.00181962 40 27 16
0.0456657 0.00164433 0.00251413 53 33 13
0.0471546 0.00155848 0.0021511 41 29 19
0.0465968 0.000668365 0.00154131 39 26 16
0.0457974 0.0016057 0.00250918 54 34 13
0.0472858 0.00150187 0.00217396 38 27 19
0.0461368 0.000721878 0.00181826 42 27 16
0.0453628 0.00152429 0.00173728 49 30 11
0.0468447 0.00149436 0.00205408 47 32 19
0.0448791 0.00242457 0.00257593 77 54 27
0.0449271 0.0024032 0.00253409 76 53 26
0.0451054 0.00245903 0.00278545 82 58 30
0.0479578 0.00224787 0.00181616 36 27 21
0.048147 0.00220205 0.00192907 35 27 21
0.0477505 0.00220623 0.00191185 38 29 22
0.0465626 0.00448559 0.00139893 157 125 80
0.0457873 0.00383909 0.00204558 150 118 75
0.0472677 0.00373487 0.00154218 115 91 67
0.046779 0.00448551 0.00147993 157 125 85
0.0460513 0.0037151 0.00126494 150 119 76
0.0474636 0.00371613 0.00163197 87 66 48
0.0464317 0.00452637 0.00137745 157 124 77
0.0456432 0.00391231 0.00223419 150 119 76
0.0471124 0.00372649 0.0014563 132 106 77
0.0449369 0.00325863 0.00312826 130 102 66
0.0479927 0.00296968 0.00158625 39 29 22
0.0481953 0.00293084 0.00168095 36 27 20
-0.0274838 0.0873061 0.0273447 135 115 77
-0.026807 0.0880056 0.026846 122 101 75
-0.0278853 0.0872159 0.0269555 110 88 52
-0.0278342 0.0871407 0.0268638 117 94 58
-0.0270738 0.0878405 0.027153 125 105 74
-0.02744 0.0901298 0.0278107 88 72 45
-0.0267674 0.0894177 0.027279 84 66 41
-0.0278798 0.0900282 0.0278189 51 36 13
-0.0285934 0.089332 0.0275139 31 18 5
-0.0278997 0.0899456 0.0277643 48 33 10
-0.0286063 0.0892469 0.0275015 32 19 6
-0.0285524 0.0879277 0.0264771 71 56 33
-0.028447 0.0878451 0.0267612 57 41 18
-0.0261267 0.0885435 0.0264627 76 56 31
-0.029619 0.0887567 0.0257105 35 24 6
-0.0291765 0.0879357 0.0255529 78 64 41
-0.0291779 0.0893455 0.0259753 48 37 23
-0.0298384 0.0886477 0.02541 26 16 1
-0.0290581 0.0892548 0.0261141 54 44 29
-0.0296875 0.088556 0.0253986 32 20 3
0.00110787 0.0145566 0.0194429 129 103 69
0.00042717 0.0152658 0.0191859 122 96 66
0.00185273 0.015275 0.0194857 150 120 82
0.00118656 0.0143924 0.0194666 130 104 68
0.000550709 0.015106 0.0191663 125 99 70
0.00195238 0.015097 0.0194566 152 122 83
0.000802818 0.0142202 0.0194635 132 107 73
0.000200362 0.014946 0.0191793 132 107 74
0.00160113 0.014908 0.0193831 138 110 73
0.00123122 0.0173052 0.0181495 140 112 81
0.000468363 0.016644 0.0185706 137 108 79
0.00192656 0.0166116 0.0185479 146 119 86
-0.00028844 0.0159821 0.0189776 146 120 85
-0.000151621 0.015851 0.0190995 137 112 78
-0.000551024 0.0156908 0.0190145 156 130 93
0.00263313 0.0158784 0.0186303 159 130 92
0.00214907 0.0164467 0.0186077 154 126 90
0.00288194 0.0157135 0.0187796 156 128 89
0.00262125 0.0155246 0.0187838 157 128 88
0.00145294 0.0171657 0.0183275 139 111 80
0.000556109 0.0173099 0.0133762 141 112 82
-0.000179934 0.0171634 0.0179122 141 113 81
0.00108006 0.0170518 0.0128287 140 111 80
0.000258698 0.0170827 0.0187004 140 111 82
0.00199451 0.0169612 0.0182953 144 117 84
-0.000843532 0.0165412 0.0186022 155 128 94
-0.000458077 0.0163837 0.0187191 153 126 91
0.00274955 0.0162174 0.0184818 157 129 92
0.033057 0.0569319 -0.00813345 151 117 76
0.0322985 0.0577031 -0.00818155 102 74 41
0.0338677 0.0577709 -0.00624938 135 101 59
0.0328318 0.0568779 -0.00819346 156 125 83
0.0320297 0.0576606 -0.00818595 76 48 15
0.0338373 0.0577246 -0.00622405 136 102 59
0.0323436 0.0568412 -0.00811343 112 83 51
0.0308147 0.0589573 0.0191204 136 102 64
0.0336301 0.0576897 -0.00614013 141 108 65
0.0322993 0.0592127 -0.00845425 93 64 31
0.0315718 0.0584534 -0.00866637 131 101 67
0.0313021 0.0584202 -0.00864038 156 125 87
0.0308054 0.0582519 -0.0116849 149 120 77
0.0344705 0.058514 -0.00635754 144 110 67
0.0350902 0.0584491 -0.00661412 125 94 56
0.0346981 0.0584252 -0.00645468 136 103 63
0.0336616 0.0584476 -0.00644302 140 106 62
0.0330643 0.0607035 -0.00848001 154 120 72
0.032009 0.059943 -0.00867902 75 45 13
0.0338165 0.0600156 -0.00637403 128 91 45
0.0308761 0.0590862 -0.0117435 159 128 81
0.0324422 0.0599568 -0.00824061 115 86 50
0.0344797 0.0592658 -0.00650702 149 114 67
0.0342756 0.0599943 -0.00664984 152 117 69
0.0350916 0.0592062 -0.00682357 133 100 61
0.0346848 0.0591941 -0.00656064 145 111 67
0.0338069 0.058447 -0.00641498 135 100 59
0.0309213 0.0590885 -0.0116812 168 135 85
0.0306838 0.0590615 -0.0116751 123 98 59
0.0313874 0.0599286 -0.00882062 147 115 79
0.0301348 0.0590608 -0.0113025 46 28 8
0.002172 0.0395274 -0.00398743 133 104 63
0.00139753 0.0387732 -0.00413567 92 63 33
0.00288779 0.0387742 -0.00379621 152 121 72
0.00235787 0.0394586 -0.00405182 140 111 68
0.00303634 0.0386854 -0.00403214 152 120 71
0.0019816 0.0394143 -0.00407474 121 93 53
0.00115766 0.0386617 -0.00428055 82 53 22
0.00263675 0.0386275 -0.00415185 119 89 45
0.000803863 0.0371049 -0.00543047 80 53 26
0.000114147 0.0378375 -0.00595936 105 76 45
0.00118227 0.0371405 -0.00429811 94 66 34
0.000489493 0.0377972 -0.00578472 77 49 22
0.0036284 0.0379616 -0.00431378 150 117 71
0.00383139 0.0379002 -0.00412904 148 117 72
0.00260048 0.0371167 -0.00404886 141 110 70
0.00345298 0.0378412 -0.00417595 147 113 66
0.00185295 0.0363834 -0.00401134 134 107 72
0.000200936 0.0377918 -0.00591245 97 68 38
0.000213897 0.0377943 -0.00587891 95 67 37
-0.0240903 0.121326 0.024052 126 102 69
-0.0233636 0.122055 0.0236199 126 103 64
-0.0241828 0.121138 0.0241229 120 97 63
-0.0233749 0.121859 0.0239145 132 108 70
-0.0245418 0.120995 0.024211 111 88 55
-0.0236529 0.12173 0.0239267 132 108 72
-0.0239854 0.124358 0.0211431 64 43 18
-0.0232704 0.123622 0.0213915 106 83 47
-0.0243724 0.124159 0.0211858 66 47 22
-0.0251107 0.123411 0.0217178 98 78 50
-0.0236651 0.123444 0.021313 89 66 34
-0.0250377 0.121847 0.0239442 111 87 59
-0.0257036 0.122563 0.0237463 132 111 79
-0.0250524 0.121694 0.0239142 109 85 57
-0.0256656 0.122362 0.024248 131 110 78
-0.0225773 0.122806 0.0228502 151 125 82
-0.0231648 0.123434 0.0215154 115 90 54
-0.0224322 0.122656 0.0225845 156 131 87
-0.0224519 0.122527 0.0227483 156 131 86
-0.0245221 0.121122 0.0243142 115 91 58
-0.0246938 0.124359 0.0212327 78 59 33
-0.025411 0.123631 0.0215813 96 76 45
-0.0242117 0.124727 0.0210261 68 48 25
-0.023494 0.124032 0.0210513 87 64 33
0.00912438 0.0876327 -0.00801066 149 117 72
0.00836323 0.0883964 -0.00751827 125 95 52
0.00896484 0.087732 -0.00800359 144 112 67
0.00814961 0.0884941 -0.00738386 123 92 51
0.00910295 0.0870605 -0.00811152 149 117 71
0.00820817 0.0878223 -0.00745079 132 99 56
0.00998479 0.0878251 -0.00965456 147 115 69
0.00919057 0.090657 -0.00836232 103 78 43
0.00841847 0.0899047 -0.00741595 97 70 34
0.00907354 0.0907648 -0.00801301 103 78 43
0.00825401 0.0900069 -0.00724387 93 68 32
0.00987749 0.0900126 -0.00963584 99 74 36
0.0101331 0.0893558 -0.0103048 113 85 46
0.00753336 0.0891582 -0.00679364 118 89 55
0.0071118 0.0892548 -0.00653553 130 101 64
0.00690379 0.088583 -0.00650141 147 117 76
0.00968224 0.0885146 -0.0141128 136 106 66
0.0100539 0.0901189 -0.010058 96 71 33
0.0109634 0.089255 -0.0115963 130 101 52
0.0105553 0.0893564 -0.0108383 110 83 40
0.0102793 0.0901193 -0.0102998 93 68 29
0.0102164 0.0884919 -0.0104923 130 100 56
0.011113 0.0892528 -0.0114728 143 113 61
0.039206 0.0675133 -0.00721407 127 97 60
0.0384417 0.0682946 -0.00685878 158 125 82
0.0391222 0.067566 -0.00722563 130 100 62
0.0383304 0.0683566 -0.00681478 160 127 83
0.039006 0.0676265 -0.00700904 133 103 65
0.0381815 0.0684203 -0.00672775 160 127 84
0.0391594 0.0705642 -0.00664452 138 109 71
0.0384244 0.069816 -0.006696 156 123 77
0.0389759 0.0706515 -0.00663267 143 114 76
0.0382643 0.0698957 -0.00661376 159 125 78
0.0387768 0.0707326 -0.00681797 149 117 78
0.0380732 0.0699718 -0.00664145 161 129 80
0.0376461 0.0690676 -0.00677175 113 88 51
0.0374407 0.0691379 -0.00672122 86 62 29
0.037182 0.0692022 -0.0068852 64 42 14
0.0399702 0.0675031 -0.0071638 117 89 53
0.0407451 0.0682467 -0.00728223 145 115 73
0.0399125 0.0675554 -0.00720013 117 89 53
0.0407106 0.0683091 -0.00728196 143 113 72
0.0398306 0.0676084 -0.00723837 117 89 54
0.0397328 0.0706496 -0.00631089 143 115 76
0.0405001 0.0698751 -0.00623494 159 129 83
0.0395628 0.0707303 -0.00654549 133 104 65
0.0403636 0.0699491 -0.00644564 159 130 85
0.041477 0.0689939 -0.0073074 160 128 84
0.0413995 0.0690683 -0.00723673 160 128 84
0.0413203 0.0691447 -0.00708771 159 127 83
0.041144 0.0531351 -0.0055262 152 120 82
0.0418911 0.052217 -0.00597445 156 124 79
0.0409816 0.053039 -0.00531546 158 125 84
0.0428283 0.0529331 -0.00659667 154 124 85
0.0418498 0.0521096 -0.00589555 157 124 80
0.0408036 0.0529455 -0.00521355 164 131 89
0.0429397 0.0528157 -0.00676159 156 127 88
0.0420281 0.0553474 -0.00647353 99 72 40
0.0411917 0.0546345 -0.00584949 114 84 53
0.0428326 0.0545541 -0.00685161 145 116 80
0.0419951 0.0552659 -0.00639561 100 73 41
0.0410565 0.0545513 -0.00570231 124 93 60
0.0429023 0.0544523 -0.00693428 148 119 83
0.0419934 0.0551873 -0.00638765 100 74 41
0.0409078 0.0544755 -0.0055613 135 104 68
0.0430406 0.0543572 -0.00700335 151 123 85
0.040345 0.0539266 -0.00516843 160 132 96
0.0400942 0.0538374 -0.00503929 153 125 89
0.0397818 0.0537603 -0.00485868 137 110 74
0.0438303 0.0535394 -0.0111976 135 105 69
0.0440153 0.0534289 -0.0111961 138 107 67
0.0440093 0.0534374 -0.0110449 138 108 67
0.04432 0.0533255 -0.0111652 144 111 70
0.0411124 0.0523952 -0.00520486 161 127 85
0.0440292 0.0534353 -0.011077 139 108 67
0.0443684 0.0533089 -0.0114532 143 111 70
0.0420953 0.0866995 -0.00931196 146 115 75
0.0411889 0.0874726 -0.00852782 156 124 87
0.0431833 0.0877382 -0.0101104 162 131 90
0.0419034 0.0902219 -0.00864996 104 79 50
0.0410793 0.0894706 -0.00811419 105 79 48
0.0427685 0.0894608 -0.00988964 118 93 62
0.0419923 0.0897684 -0.00865686 100 74 45
0.0420993 0.0900628 -0.00861994 104 79 51
0.0433627 0.0893003 -0.0112222 121 96 62
0.0437346 0.0887046 -0.0127729 139 113 77
0.0434477 0.0869609 -0.0111322 161 128 84
0.0403369 0.0877377 -0.00768944 163 132 91
0.0437105 0.0879395 -0.0125134 159 130 90
0.0446694 0.0882927 -0.0252446 156 127 87
0.0435688 0.0877444 -0.0123526 158 127 89
0.0435293 0.0877433 -0.0120049 159 129 90
0.0434516 0.0893018 -0.0115383 121 95 61
0.0443127 0.0882353 -0.0129163 165 135 93
0.00121889 0.0196493 0.00707963 117 87 57
0.000790377 0.0195167 0.00688886 140 108 74
0.0012922 0.0193943 0.00705883 115 85 56
0.000531986 0.0201601 0.0069477 134 102 65
0.00196487 0.0201309 0.00721026 93 62 25
0.00127313 0.0226139 0.00700448 144 112 70
0.000514323 0.0218795 0.00695344 137 103 64
0.00196864 0.0218732 0.00715161 141 108 66
0.000846878 0.0225162 0.00704646 138 105 63
7.05381e-05 0.0217903 0.00701661 143 109 69
0.00132458 0.0223855 0.00706959 140 107 66
0.000517104 0.0216642 0.00702373 138 104 65
0.00194903 0.0216263 0.00720559 134 102 60
-0.000250614 0.0211415 0.00687231 141 109 68
0.00268865 0.021143 0.00738977 147 114 71
0.00268769 0.020875 0.00743516 140 107 65
0.00148326 0.019528 0.00716915 108 78 48
0.00217802 0.0202815 0.00742191 100 68 28
0.00222176 0.0217573 0.00729931 146 113 70
0.00717696 0.0657996 -0.00537294 157 124 79
0.0064425 0.0665886 -0.00469264 155 125 86
0.00786245 0.0664843 -0.00713692 151 122 83
0.00684582 0.065836 -0.00477805 161 129 85
0.00606644 0.0665853 -0.00534045 145 115 75
0.0074338 0.0658073 -0.00566085 157 125 81
0.00802792 0.0665287 -0.0065595 147 117 77
0.00598002 0.0680826 -0.00591376 122 94 54
0.00528837 0.0673354 -0.00591015 128 97 56
0.00874768 0.0672075 -0.00777183 125 96 56
0.0066052 0.0658428 -0.00498591 169 138 95
0.00643993 0.0688106 -0.00600498 140 112 77
0.00676953 0.0688315 -0.00583196 127 100 69
0.00664869 0.0921594 -0.00454867 109 85 52
0.00741027 0.0929011 -0.00464601 103 79 48
0.00669098 0.0922606 -0.00462148 109 85 52
0.00746568 0.0930101 -0.00472697 105 80 50
0.00618579 0.091609 -0.00538079 107 83 48
0.0053899 0.0923591 -0.00482521 101 76 41
0.00700445 0.0923566 -0.00464165 105 80 49
0.00668266 0.0951563 -0.0043041 88 63 27
0.00742431 0.0944003 -0.00453816 96 73 43
0.00669092 0.0952711 -0.0045333 91 67 30
0.00746099 0.0945146 -0.00458533 92 68 38
0.00471491 0.0931133 -0.00481165 113 86 54
0.00819136 0.0936437 -0.00481106 104 83 55
0.00829571 0.093762 -0.0049993 98 78 49
0.00786883 0.0931128 -0.00469227 113 89 59
0.00591651 0.0921717 -0.00477831 103 77 42
0.0051579 0.0929301 -0.00459246 106 81 48
0.00597675 0.0922678 -0.00484876 106 81 46
0.0051706 0.0930227 -0.00456295 108 83 50
0.00589146 0.0951592 -0.00385723 91 67 30
0.00513827 0.0944253 -0.00422285 112 88 55
0.00580741 0.0952646 -0.00382112 93 69 33
0.00507086 0.0945214 -0.00408619 109 85 51
0.00522929 0.0946145 -0.0041127 105 80 47
0.0044022 0.0936873 -0.00437326 111 89 56
0.00436862 0.093777 -0.00432525 111 88 55
0.00448953 0.0946117 -0.00401203 99 73 41
0.00374586 0.0938616 -0.00432041 103 79 47
-0.0278573 0.0631494 0.0256503 102 83 45
-0.0271396 0.0638454 0.0255362 128 109 77
-0.0278613 0.0631456 0.0256236 102 82 44
-0.0271317 0.0638396 0.0255376 128 109 77
-0.0281657 0.0631468 0.025664 69 51 19
-0.0291318 0.0637618 0.0230642 80 65 47
-0.0274076 0.0638393 0.0256124 124 104 67
-0.026336 0.0645659 0.0260558 64 47 20
-0.0262472 0.0645626 0.026213 59 42 14
-0.0264874 0.0645478 0.0259963 73 56 30
-0.0291316 0.0644738 0.0231088 81 67 48
-0.0277908 0.0667105 0.0257098 94 78 47
-0.0270735 0.0659933 0.0258662 79 63 36
-0.0278035 0.0666946 0.0257171 93 77 47
-0.0270673 0.0659806 0.0258886 79 62 35
-0.0281244 0.0666839 0.0257366 72 56 28
-0.0290669 0.0659132 0.0236492 60 49 34
-0.0272837 0.0666649 0.0255492 99 83 55
-0.0264592 0.0659753 0.0263578 75 58 28
-0.0256794 0.065288 0.0266046 119 104 65
-0.0257669 0.0652809 0.026674 113 97 59
-0.0261167 0.0652658 0.0264558 74 57 24
0.00789268 0.127483 -0.051394 142 115 73
0.00847472 0.129688 -0.0718032 145 116 75
0.00819706 0.123717 -0.00500123 155 125 83
0.0073565 0.124458 -0.00492133 161 132 86
0.00867247 0.126415 -0.0337003 140 111 69
0.00871559 0.12373 -0.00515339 141 113 73
0.00921538 0.127123 -0.0439187 144 116 73
0.00855847 0.126404 -0.0335269 139 111 68
0.00897484 0.129894 -0.0725926 148 120 78
0.01008 0.128037 -0.0453608 154 127 86
0.00798672 0.127167 -0.0467341 143 116 74
0.00857192 0.127135 -0.0443104 135 105 66
0.00780446 0.125656 -0.0115878 152 123 80
0.00743793 0.13537 -0.113232 116 93 55
0.00907717 0.131643 -0.0736624 115 89 52
0.00683673 0.135894 -0.120446 107 83 45
0.00662763 0.131505 -0.0720431 137 112 72
0.00769426 0.125203 -0.0050308 158 129 86
0.00924229 0.129778 -0.0732232 150 122 81
0.0109446 0.125802 -0.00481752 161 133 93
0.00952581 0.130847 -0.0738597 142 116 77
0.00803235 0.123186 0.0242605 164 134 91
0.00851811 0.123272 0.02291 165 136 93
0.00744374 0.134777 -0.105112 112 87 51
0.00674112 0.135358 -0.113113 109 86 50
0.00787043 0.126581 -0.0046377 136 109 71
0.00705523 0.125862 -0.00490652 152 124 82
0.00864013 0.125866 -0.0052042 144 117 83
0.00861745 0.125359 -0.00523868 149 121 86
0.00793248 0.124809 -0.0050257 163 134 89
0.00693162 0.125536 -0.00487361 149 120 79
0.00900116 0.125571 -0.00495287 124 98 63
0.00980206 0.094397 -0.0063737 55 35 9
0.00903859 0.0951458 -0.00552419 63 42 14
0.0105649 0.0951458 -0.00673375 65 44 16
0.00931354 0.0945253 -0.00605776 46 27 3
0.0109222 0.0945456 -0.00800967 61 41 14
0.00908431 0.0946381 -0.00563821 46 26 2
0.0103902 0.0973369 -0.00326599 151 126 86
0.00959528 0.0965955 -0.00310667 144 119 82
0.011129 0.0965727 -0.00294041 98 78 48
0.0101076 0.0952768 -0.00595067 75 55 25
0.0105432 0.0968731 -0.0032239 143 120 83
0.0113193 0.0961172 -0.00308034 87 68 44
0.00885883 0.0958595 -0.00326163 126 102 69
0.00874572 0.0952618 -0.00462407 72 51 22
0.0103641 0.0952712 -0.00575634 72 52 23
0.00893139 0.0961155 -0.00323705 140 115 80
0.0080926 0.0953776 -0.00426816 78 56 26
0.00985568 0.0953807 -0.00436033 84 64 34
0.0110882 0.0951561 -0.0077797 61 40 13
0.0102931 0.0952694 -0.00560958 73 53 23
0.00973996 0.0953755 -0.00401773 84 64 34
0.0108258 0.0952831 -0.00671376 70 50 22
0.0103334 0.0974864 -0.00332115 150 125 84
0.00946489 0.0967373 -0.00320722 144 118 82
0.0110874 0.096724 -0.00297229 103 84 51
0.00948449 0.0953709 -0.00366815 85 64 34
0.00967919 0.0968721 -0.00325089 144 118 80
0.00978908 0.0953772 -0.00413368 84 64 34
0.0110645 0.0951576 -0.00785022 62 41 13
0.00964293 0.0953707 -0.00370833 84 63 34
0.0100689 0.0953831 -0.00456715 82 62 32
-0.0156747 0.123541 -5.42781e-05 149 120 76
-0.0162469 0.125712 -0.0100373 128 102 65
-0.0150815 0.12446 -0.00281695 141 114 72
-0.01345 0.121186 0.0342885 145 116 74
-0.0142066 0.123863 0.00504654 156 127 82
-0.0159513 0.127032 -0.00758882 111 87 55
-0.0168499 0.126493 -0.0104476 140 113 73
-0.0167318 0.126358 -0.0103616 139 113 72
-0.015977 0.126807 -0.00793922 114 90 57
-0.0175071 0.125774 -0.0108355 124 98 57
-0.0178822 0.125582 -0.0101109 118 93 54
-0.0157271 0.123313 0.0102449 153 123 79
-0.0161936 0.125675 -0.0111825 133 107 68
-0.0144037 0.125257 -0.00504608 135 108 67
-0.0142055 0.125137 -0.00458367 147 119 77
-0.0151848 0.122549 0.00369303 158 130 83
-0.0160542 0.123442 0.00142755 149 121 77
-0.0147519 0.123646 -0.00185869 155 126 81
-0.015569 0.123417 0.0110381 150 122 78
-0.0155283 0.124381 -0.001659 137 109 69
-0.0165685 0.126312 -0.00971828 135 109 70
-0.0148798 0.126033 -0.00566251 105 79 44
-0.0160646 0.123432 0.00156498 150 121 78
-0.0175879 0.125098 -0.011973 121 95 56
-0.0155378 0.124382 -0.00167508 136 109 68
-0.015378 0.123541 0.00898404 154 125 80
-0.0147059 0.122734 0.0189861 146 118 75
-0.0161165 0.125596 -0.0100431 130 104 67
-0.0152531 0.124306 -0.00223991 142 114 73
-0.0146949 0.125199 -0.00439659 133 106 65
0.0025847 0.124392 -0.00457773 146 117 74
0.00183482 0.125156 -0.00473139 144 117 73
0.00240865 0.123782 -0.00439891 148 119 76
0.00240816 0.12392 -0.00440647 148 119 75
0.00158663 0.124676 -0.00470384 141 114 69
0.00319365 0.124701 -0.00466548 137 109 68
0.000943889 0.125307 -0.00491268 151 124 86
0.000925381 0.125419 -0.0048104 154 127 88
0.00318247 0.125304 -0.00473315 136 108 70
0.00240708 0.127539 -0.00464747 138 113 73
0.00165365 0.126781 -0.00455915 121 95 54
0.00317785 0.126797 -0.00468156 114 88 50
0.000345476 0.125915 -0.00469634 158 133 98
0.00402496 0.126086 -0.00517131 134 108 70
0.00415816 0.12549 -0.00501394 142 114 75
0.00238883 0.127681 -0.00459837 140 115 75
0.00160832 0.126916 -0.00458446 117 91 50
0.000696919 0.126152 -0.0045842 150 124 89
-0.0232071 0.10118 0.0305111 143 125 90
-0.0239219 0.10188 0.0305858 149 132 97
-0.0224872 0.101879 0.030451 153 135 98
-0.0235527 0.101109 0.0304983 145 127 93
-0.0243041 0.1018 0.0306032 152 134 97
-0.0230303 0.104095 0.030437 109 89 53
-0.0237249 0.103393 0.0307228 116 96 68
-0.022332 0.103385 0.0304297 142 123 81
-0.0231789 0.103979 0.0304597 104 85 52
-0.0238872 0.103275 0.0306713 124 104 75
-0.022462 0.10328 0.0304059 130 111 71
-0.0235317 0.1039 0.0305338 107 89 59
-0.024269 0.103193 0.0306833 143 123 90
-0.0246648 0.102578 0.0307032 154 133 96
-0.0216475 0.102679 0.0303156 152 132 90
-0.0217576 0.102578 0.0303889 153 133 91
-0.0237832 0.101298 0.0304237 146 130 94
-0.0216574 0.101977 0.0303163 145 124 84
-0.022801 0.101116 0.0303631 141 124 88
-0.0227888 0.10391 0.0304068 115 95 57
-0.0220282 0.103216 0.0303986 159 141 98
-0.0212835 0.102518 0.0305028 142 120 78
-0.0303806 0.126506 0.0217939 137 120 84
-0.0310669 0.127221 0.021821 126 105 69
-0.0296541 0.127206 0.0218234 132 114 76
-0.0309145 0.12621 0.021767 137 117 78
-0.03087 0.127623 0.021749 123 103 68
-0.0315913 0.12691 0.021794 114 92 54
-0.0301963 0.126926 0.0216803 131 113 77
-0.0303989 0.125971 0.0217656 134 115 80
-0.0310794 0.126656 0.0218159 129 108 70
-0.0296507 0.126684 0.0218264 126 109 72
-0.0310549 0.128604 0.0222645 83 63 29
-0.0317573 0.127915 0.0221054 111 90 55
-0.0322732 0.127591 0.0220614 115 93 57
-0.0317651 0.12735 0.0217447 115 93 57
-0.0289323 0.127894 0.02201 139 117 77
-0.0294781 0.127621 0.0218747 139 121 81
-0.0289157 0.127391 0.0219831 140 118 77
-0.0302158 0.129694 0.0223843 125 105 70
-0.0295154 0.129011 0.022157 127 108 66
-0.0304617 0.129445 0.0222819 113 93 60
-0.0311305 0.128734 0.0221999 85 65 32
-0.0297279 0.128772 0.0221026 115 97 55
-0.0318252 0.128016 0.0222082 105 84 49
-0.0287782 0.128315 0.0220902 131 109 68
-0.028931 0.128094 0.021985 137 116 75
-0.00824163 0.00321519 0.029713 72 55 36
-0.00894062 0.00404426 0.0303585 138 114 85
-0.00825018 0.00312922 0.0297203 70 53 35
-0.00901606 0.00397293 0.0303738 134 110 80
-0.00810558 0.00294792 0.0295072 62 46 31
-0.00896018 0.00383457 0.0303333 126 102 73
-0.00729968 0.00355992 0.0290785 51 33 17
-0.00822118 0.0062109 0.0306233 132 105 68
-0.00894655 0.00553762 0.0307906 154 129 93
-0.00708577 0.00678566 0.0393563 137 110 76
-0.00834331 0.00616028 0.0308261 134 107 70
-0.0091102 0.00546726 0.0307886 153 128 90
-0.00758159 0.0053324 0.0302518 134 107 76
-0.0091544 0.00534415 0.0308046 153 129 90
-0.00958109 0.00487497 0.0310324 147 123 83
-0.00963033 0.0047977 0.0309368 145 121 82
-0.00957684 0.00466043 0.0308232 145 122 83
-0.00678297 0.00469409 0.0302391 104 80 53
-0.00681028 0.00450958 0.0297253 96 73 47
-0.00739267 0.00360467 0.0293529 52 34 18
-0.00595735 0.00661997 0.0447945 85 61 39
-0.00725701 0.00362481 0.0295082 51 34 17
-0.0253476 0.0922258 0.0273059 87 68 43
-0.025961 0.092922 0.0287938 94 76 52
-0.0246026 0.092915 0.0279187 96 80 57
-0.0257569 0.0921212 0.0280478 83 64 40
-0.0264927 0.092819 0.028859 95 78 51
-0.0250922 0.0928203 0.0280488 97 79 56
-0.0257498 0.0920463 0.0280292 83 64 39
-0.0265679 0.0927367 0.0289422 95 78 51
-0.0251147 0.0927505 0.0278905 96 78 54
-0.0266847 0.0936288 0.0293191 114 97 67
-0.0239107 0.0936158 0.0276239 67 54 31
-0.0243951 0.0935156 0.028325 73 60 37
-0.0243969 0.0927555 0.0275226 95 80 56
-0.0236812 0.0934692 0.0267915 75 62 39
-0.0252537 0.0957176 0.0295285 151 133 94
-0.0259851 0.0950254 0.0294253 111 94 60
-0.0245456 0.0950114 0.0291377 94 79 47
-0.025229 0.0956078 0.0295463 148 131 93
-0.0244506 0.0949124 0.0289185 85 71 39
-0.0254853 0.0955323 0.0294338 144 127 89
-0.0262644 0.0948324 0.0293932 100 82 48
-0.0245706 0.0948403 0.0289793 80 65 34
-0.0266753 0.0942156 0.0294476 107 90 58
-0.0269371 0.0941305 0.0294777 113 97 64
-0.0238687 0.0943089 0.0284564 45 32 7
-0.0237226 0.0942202 0.027968 41 29 5
-0.0237437 0.0941552 0.0279788 41 28 5
-0.0238467 0.0941545 0.0280615 42 29 5
-0.0270661 0.0674259 0.0261458 104 88 61
-0.027754 0.0681391 0.025888 107 90 58
-0.026353 0.0681348 0.026415 111 95 63
-0.0271215 0.0674082 0.0261541 105 87 60
-0.0277751 0.068117 0.0258695 105 88 56
-0.026438 0.0681194 0.0265457 108 91 60
-0.0274175 0.067392 0.0260761 101 84 56
-0.0280569 0.0680956 0.0257138 83 66 34
-0.0270206 0.0702671 0.0260856 68 52 26
-0.0277445 0.0695543 0.02566 110 93 63
-0.0263215 0.069559 0.0265257 94 78 45
-0.0270785 0.07024 0.0261272 65 49 23
-0.0277617 0.0695276 0.0256665 110 93 64
-0.0264169 0.0695366 0.0265976 88 71 39
-0.0273897 0.0702108 0.0258699 76 60 34
-0.0280317 0.0695042 0.025581 99 82 51
-0.0284603 0.0688545 0.0256763 56 39 15
-0.0285241 0.068812 0.0251093 39 24 4
-0.0288799 0.0687755 0.0245358 25 12 0
-0.0256602 0.0688391 0.0265526 128 110 77
-0.0257898 0.0688249 0.0267699 126 109 74
-0.0268462 0.0673936 0.0263724 106 90 61
-0.0261649 0.0681086 0.0269267 122 104 68
-0.0267791 0.0702193 0.026434 79 63 34
-0.026143 0.0695188 0.0268923 106 90 55
-0.0255438 0.0688034 0.0268588 132 114 83
-0.0322312 0.0815824 0.0225973 75 52 18
-0.0323156 0.0815046 0.0226692 64 42 9
-0.0317687 0.0845204 0.0221355 146 124 83
-0.030946 0.0838008 0.0234246 100 84 54
-0.032129 0.0844197 0.0221846 98 75 41
-0.032165 0.0843292 0.0221938 88 66 33
-0.030293 0.0830848 0.0244051 43 30 14
-0.0309555 0.0822855 0.0234117 121 106 76
-0.0301344 0.082992 0.0243487 36 22 4
-0.0311519 0.082211 0.0234557 132 116 81
-0.0303087 0.0829177 0.0243758 47 34 17
-0.0315389 0.0815772 0.0228249 151 130 90
-0.0316534 0.0815006 0.0226644 149 128 87
-0.0313815 0.084413 0.0222909 133 112 74
-0.0313938 0.0843258 0.0222918 130 110 72
-0.000642684 0.110965 -0.00426137 129 101 65
0.000132132 0.111707 -0.00433465 127 99 61
-0.00162751 0.111805 -0.00439607 133 105 69
-0.00107743 0.110379 -0.00435979 138 110 72
-0.00182037 0.111111 -0.00412243 133 105 67
-0.000209748 0.111134 -0.00429341 123 95 57
-0.002425 0.112557 -0.0044773 123 96 57
-0.00270242 0.111865 -0.00442395 129 102 64
0.000901135 0.11245 -0.00442498 131 104 66
0.000680277 0.111903 -0.00453911 140 113 74
-0.00138458 0.110975 -0.00428886 134 105 69
-0.00169233 0.113376 -0.00450268 116 90 53
-6.59213e-05 0.113395 -0.00452891 101 75 39
0.000622816 0.112644 -0.00431453 126 98 61
-0.000813369 0.114137 -0.00455962 125 101 63
0.0381875 0.106185 -0.107186 138 109 68
0.0390341 0.106988 -0.150673 134 105 67
0.0372139 0.103546 -0.0533754 142 113 72
0.0392973 0.107553 -0.158888 137 107 67
0.0381273 0.105834 -0.0687225 136 106 63
0.0401565 0.109781 -0.16243 139 108 68
0.0375969 0.105284 -0.0651256 137 107 65
0.0374457 0.106713 -0.0578886 143 112 71
0.03791 0.107487 -0.1072 142 112 71
0.0377866 0.105686 -0.0680459 133 102 60
0.0390037 0.109423 -0.180799 143 116 77
0.0390348 0.107328 -0.115634 139 109 69
0.039703 0.105372 -0.141837 135 106 65
0.0387008 0.106209 -0.10821 137 107 66
0.0397207 0.107272 -0.174667 144 118 80
0.0416257 0.109599 -0.20575 132 106 65
0.0396243 0.105701 -0.108949 143 112 72
0.0387468 0.105904 -0.108095 136 107 66
0.0397049 0.107156 -0.183107 144 119 81
0.039794 0.107786 -0.159735 136 106 67
0.0377689 0.107446 -0.0918186 144 114 72
0.038718 0.108655 -0.15667 137 107 67
0.041526 0.111135 -0.189333 142 115 75
0.0393938 0.109167 -0.159325 137 106 65
0.0393224 0.107561 -0.159157 137 107 67
0.0394947 0.109516 -0.159854 138 107 66
0.0382613 0.108716 -0.165297 134 107 67
0.0398684 0.107589 -0.185531 146 121 82
0.039739 0.109479 -0.182827 143 115 75
0.0384721 0.106185 -0.107445 137 107 67
0.0373084 0.106773 -0.0886865 142 112 72
0.0395447 0.107659 -0.173935 141 114 77
0.0367491 0.106896 -0.0899139 147 116 75
0.0382176 0.108757 -0.177958 140 113 74
0.039812 0.105388 -0.142424 135 106 66
0.0364232 0.103969 -0.0614086 137 108 68
0.0375034 0.105268 -0.0647294 137 107 65
0.0383823 0.106941 -0.108305 140 111 68
0.0380889 0.10469 -0.0634279 142 112 71
0.0398052 0.107786 -0.159754 135 106 67
0.0384425 0.108163 -0.113471 146 116 75
0.0387231 0.108648 -0.156452 137 107 66
0.0410612 0.110599 -0.173446 145 118 76
0.0394236 0.109163 -0.159206 137 106 65
0.0395656 0.109525 -0.160137 138 107 66
0.0383608 0.107795 -0.159564 138 109 67
0.0403794 0.107774 -0.159697 135 106 65
-0.0271321 0.0215854 0.0308122 61 44 19
-0.0278407 0.0222378 0.0302063 60 44 26
-0.0275804 0.0217056 0.0305332 48 33 14
-0.0282508 0.0223548 0.0298613 85 67 48
-0.0275832 0.021801 0.0305096 50 34 16
-0.0282264 0.022454 0.0298272 83 65 44
-0.0270967 0.0243999 0.0305846 131 109 72
-0.0278204 0.0236655 0.0302567 65 44 15
-0.0275642 0.0245329 0.0304918 121 99 64
-0.0282517 0.0238161 0.0302356 85 63 35
-0.0275881 0.0246326 0.0305609 125 104 69
-0.0282608 0.0239239 0.0302992 89 66 38
-0.0285308 0.0229124 0.0297789 98 77 50
-0.0288692 0.0230643 0.0296964 102 79 50
-0.0269318 0.0217436 0.0310217 83 64 37
-0.0262557 0.0224471 0.0311645 103 82 52
-0.0268699 0.0245297 0.0306462 137 114 77
-0.0262326 0.0238355 0.0309372 126 101 68
-0.0268957 0.0246038 0.030557 137 115 77
-0.0255142 0.0231244 0.0310951 82 58 29
-0.000678082 0.105751 -0.00479524 148 122 82
-0.00141824 0.106499 -0.0045526 185 160 118
9.24663e-05 0.106479 -0.00450276 153 128 89
-0.000814103 0.105821 -0.0046547 155 129 89
-4.04188e-05 0.106565 -0.00455849 149 123 85
-0.000822894 0.105139 -0.00471824 143 117 76
-0.00163495 0.105876 -0.00447967 167 142 101
-0.000655339 0.108733 -0.0045011 142 113 72
5.32185e-05 0.10798 -0.00460943 124 97 57
-0.000829343 0.10881 -0.00441991 146 117 76
-0.00152234 0.108071 -0.00467937 139 111 70
-0.00014179 0.108059 -0.00439786 120 92 52
-0.002151 0.107251 -0.00441817 169 143 101
0.000821678 0.107217 -0.00445819 156 129 87
0.000650019 0.107308 -0.00438091 154 127 85
-0.00140163 0.108732 -0.00425579 136 108 67
-0.00216651 0.107997 -0.00434847 138 110 70
-0.00958926 0.114791 -0.00404879 112 85 49
-0.0103326 0.115541 -0.00396979 147 123 84
-0.0088261 0.11553 -0.00407675 139 112 73
-0.0100212 0.114774 -0.00400653 122 95 59
-0.0107952 0.115517 -0.0039707 147 123 81
-0.00970841 0.114752 -0.00397311 111 84 49
-0.010526 0.115484 -0.00389893 149 124 85
-0.00890085 0.115508 -0.00399215 136 110 72
-0.0095471 0.117788 -0.00430837 98 74 43
-0.010301 0.117039 -0.00409287 143 118 80
-0.00879748 0.117034 -0.00430895 101 75 40
-0.00997358 0.117765 -0.00418026 124 99 66
-0.0107485 0.117015 -0.00412151 148 121 80
-0.00965777 0.117744 -0.004167 102 78 46
-0.0104565 0.116979 -0.00399729 149 124 84
-0.00883253 0.117016 -0.00429642 99 73 39
-0.0116654 0.116288 -0.004445 143 115 72
-0.0114789 0.116247 -0.00443124 146 119 74
-0.00804931 0.116282 -0.0043492 137 109 69
-0.00800077 0.116287 -0.00441445 137 110 69
-0.00923153 0.114783 -0.00418318 113 86 49
-0.00841883 0.11553 -0.00420583 144 118 78
-0.00915856 0.117773 -0.00431532 91 66 36
-0.00838141 0.117032 -0.00438812 109 83 46
-0.011362 0.116259 -0.0046603 147 120 75
-0.00762064 0.11629 -0.00444731 140 112 68
-0.0114831 0.116249 -0.00446724 146 118 74
0.0193497 0.0141405 0.0191193 150 123 85
0.0185656 0.0148672 0.0189756 141 115 78
0.0193013 0.0137495 0.0190473 152 125 86
0.0183697 0.0145294 0.0191781 142 115 78
0.0189712 0.0140988 0.0190036 148 121 83
0.0178301 0.0149296 0.0193674 133 105 69
0.0193642 0.0170398 0.018969 141 113 78
0.0185749 0.0163658 0.0192861 154 126 89
0.0188666 0.0171081 0.0193524 152 124 90
0.0178089 0.0163928 0.019232 146 117 81
0.01753 0.0153337 0.019519 128 101 63
0.0169797 0.0157632 0.0198232 132 104 67
0.0191956 0.017448 0.0192167 147 118 84
0.0200884 0.0141504 0.0193107 148 120 80
0.0208419 0.0148322 0.0190594 147 118 80
0.0200862 0.0137476 0.0192247 150 121 79
0.0208869 0.0144592 0.0192367 146 117 78
0.0198336 0.0141331 0.019546 150 120 81
0.0207184 0.0147713 0.0190377 148 119 80
0.0197958 0.0170177 0.0189232 120 92 59
0.0207606 0.0161761 0.0184282 137 109 76
0.021577 0.0155161 0.0188173 141 112 76
0.0216007 0.0151219 0.018854 140 111 73
0.0214991 0.0154583 0.0188762 142 113 76
0.0219313 0.0261261 0.00879682 146 119 83
0.0228053 0.0259628 0.000337329 139 116 87
0.0220943 0.0259988 0.0102338 146 119 83
0.0230398 0.0261997 0.00530656 150 125 92
0.022077 0.0261132 0.0067283 143 118 84
0.0222814 0.0259488 -0.00944472 119 108 91
0.0211458 0.02611 -0.000824082 135 114 88
0.0232001 0.0260845 -0.000420837 141 120 92
0.022995 0.0264295 -0.00983407 87 76 63
0.0210676 0.0256295 -0.000819995 137 114 84
0.0203015 0.0257297 -0.00735606 148 132 111
0.0213426 0.0253644 -0.00106352 137 113 81
0.0204801 0.0262285 -0.000403637 147 128 101
0.0224204 0.0261388 0.00658167 145 120 86
0.0234881 0.026138 -0.000313458 146 124 96
0.0218804 0.0255976 -0.000910571 137 112 83
0.0212489 0.025371 -0.00102022 138 114 82
0.0221995 0.028019 -0.0094136 11 7 4
0.0213986 0.0272934 -0.00916523 16 11 4
0.0229688 0.027206 -0.0097374 18 11 5
0.022054 0.0278024 -0.00920953 12 8 5
0.0228661 0.0269756 -0.00954641 29 21 13
0.0215357 0.0276303 -0.00891028 12 8 4
0.0205943 0.0269158 -0.00862391 49 41 33
0.0224113 0.0267755 -0.00939732 41 34 24
0.0234083 0.0266205 -0.00306045 145 130 111
0.0204717 0.0259413 -0.000339115 142 121 92
0.0209766 0.0256158 -0.000964273 138 115 85
0.0212146 0.0253849 -0.000895253 137 114 82
0.0204794 0.0259332 -0.000414774 143 121 92
